ply
format ascii 1.0
element vertex 1410
property float x
property float y
property float z
property uchar red
property uchar green
property uchar blue
end_header
0.564209 -0.178171 2.145 23 17 19
0.543236 -0.162971 1.962 34 24 25
0.559641 -0.159897 1.925 40 30 31
0.561011 -0.153003 1.842 40 29 35
0.572502 -0.149348 1.798 40 37 28
0.579784 -0.144946 1.745 42 32 31
0.558603 -0.134065 1.614 87 34 40
0.565829 -0.130576 1.572 119 68 64
0.575257 -0.127835 1.539 146 131 110
0.584546 -0.12526 1.508 171 150 133
0.59378 -0.122851 1.479 163 152 130
0.610933 -0.122187 1.471 169 150 133
0.625289 -0.121024 1.457 169 151 127
0.645459 -0.121024 1.457 156 146 121
0.662432 -0.120442 1.45 166 148 124
0.675916 -0.119279 1.436 176 155 138
0.686105 -0.117618 1.416 173 157 131
0.698731 -0.116455 1.402 172 156 133
0.71814 -0.116455 1.402 160 143 117
0.737549 -0.116455 1.402 160 132 118
0.767757 -0.118116 1.422 151 139 117
-1.20995 -0.155121 2.241 96 88 77
-1.17892 -0.155121 2.241 109 91 81
-1.1479 -0.155121 2.241 109 91 81
-1.11687 -0.155121 2.241 109 92 82
-1.09409 -0.156298 2.258 97 82 77
-1.07083 -0.157475 2.275 104 88 75
-1.0471 -0.158651 2.292 116 92 90
-1.00784 -0.157475 2.275 106 90 77
-0.983639 -0.158651 2.292 110 96 85
-0.959384 -0.159897 2.31 109 96 80
-0.920178 -0.158651 2.292 111 93 83
-0.888448 -0.158651 2.292 120 97 89
-0.856718 -0.158651 2.292 116 96 85
-0.824987 -0.158651 2.292 118 100 86
-0.805717 -0.161143 2.328 110 92 82
-0.773488 -0.161143 2.328 122 102 91
-0.741259 -0.161143 2.328 117 100 82
-0.703548 -0.159897 2.31 116 103 86
-0.532313 -0.126741 1.831 47 36 30
-0.506965 -0.126741 1.831 46 35 33
-0.48451 -0.127503 1.842 29 26 19
-0.459009 -0.127503 1.842 29 27 15
-0.43092 -0.126741 1.831 33 23 24
-0.410445 -0.128264 1.853 34 24 25
-0.387284 -0.129095 1.865 34 27 21
-0.359139 -0.128264 1.853 39 30 25
-0.331507 -0.127503 1.842 39 31 29
-0.307834 -0.128264 1.853 33 24 19
-0.282181 -0.128264 1.853 35 28 22
-0.256528 -0.128264 1.853 29 22 16
-0.230875 -0.128264 1.853 32 22 21
-0.205222 -0.128264 1.853 32 24 22
-0.17957 -0.128264 1.853 35 26 31
-0.155827 -0.129856 1.876 34 25 26
-0.128264 -0.128264 1.853 38 33 27
-0.103885 -0.129856 1.876 35 26 17
-0.0774568 -0.129095 1.865 41 30 34
-0.0513056 -0.128264 1.853 35 21 20
-0.0258189 -0.129095 1.865 32 23 18
0 -0.128264 1.853 37 27 25
0.0256528 -0.128264 1.853 30 25 21
0.0516379 -0.129095 1.865 30 24 24
0.0998009 -0.166335 2.403 64 49 44
0.133068 -0.166335 2.403 71 54 46
0.16502 -0.16502 2.384 74 54 53
0.198024 -0.16502 2.384 84 67 57
0.231027 -0.16502 2.384 94 77 69
0.264031 -0.16502 2.384 86 67 61
0.297035 -0.16502 2.384 87 72 51
0.330039 -0.16502 2.384 94 79 72
0.365937 -0.166335 2.403 92 73 66
0.399204 -0.166335 2.403 94 80 67
0.432471 -0.166335 2.403 93 75 63
0.465737 -0.166335 2.403 95 79 66
0.499004 -0.166335 2.403 90 72 60
0.532271 -0.166335 2.403 84 64 65
0.556595 -0.163704 2.365 51 45 31
0.550213 -0.152837 2.208 27 24 33
0.560264 -0.147438 2.13 21 21 13
0.577292 -0.144323 2.085 36 32 29
0.559641 -0.133248 1.925 40 30 29
0.561011 -0.127503 1.842 46 39 33
0.568999 -0.123696 1.787 42 37 41
0.579784 -0.120788 1.745 37 34 19
0.586983 -0.117397 1.696 49 28 25
0.56259 -0.10819 1.563 135 96 97
0.56965 -0.105491 1.524 141 129 107
0.576018 -0.10286 1.486 156 139 113
0.590568 -0.101822 1.471 170 155 132
0.602211 -0.100368 1.45 174 157 139
0.613272 -0.0989149 1.429 178 157 140
0.627296 -0.098015 1.416 123 103 94
0.640503 -0.0970459 1.402 112 89 71
0.659912 -0.0970459 1.402 138 99 84
0.676414 -0.0966306 1.396 103 45 41
0.692252 -0.0961461 1.389 111 27 40
0.708408 -0.0957308 1.383 105 46 32
0.720715 -0.0948309 1.37 169 148 127
0.739681 -0.0948309 1.37 156 130 115
-1.2283 -0.12598 2.275 99 86 78
-1.17892 -0.124097 2.241 94 79 56
-1.1566 -0.125038 2.258 91 74 67
-1.14229 -0.126921 2.292 113 94 80
-1.11056 -0.126921 2.292 101 84 76
-1.07883 -0.126921 2.292 107 91 78
-1.05532 -0.127918 2.31 98 78 79
-1.02334 -0.127918 2.31 106 87 81
-0.991364 -0.127918 2.31 99 87 71
-0.959384 -0.127918 2.31 101 82 78
-0.927405 -0.127918 2.31 112 92 85
-0.895425 -0.127918 2.31 106 89 79
-0.863446 -0.127918 2.31 109 93 80
-0.831466 -0.127918 2.31 112 92 81
-0.805717 -0.128915 2.328 120 103 93
-0.773488 -0.128915 2.328 118 99 85
-0.746991 -0.129911 2.346 119 96 88
-0.709031 -0.128915 2.328 113 92 87
-0.538709 -0.102611 1.853 59 50 45
-0.513056 -0.102611 1.853 37 26 24
-0.487403 -0.102611 1.853 29 24 20
-0.464741 -0.103276 1.865 28 19 20
-0.438922 -0.103276 1.865 37 29 26
-0.413103 -0.103276 1.865 34 26 23
-0.389568 -0.103885 1.876 34 24 25
-0.363597 -0.103885 1.876 29 20 25
-0.337626 -0.103885 1.876 32 22 23
-0.311655 -0.103885 1.876 36 33 28
-0.282181 -0.102611 1.853 43 35 32
-0.256528 -0.102611 1.853 35 30 26
-0.23237 -0.103276 1.865 34 28 28
-0.206551 -0.103276 1.865 34 29 25
-0.181798 -0.103885 1.876 29 24 21
-0.154914 -0.103276 1.865 37 29 26
-0.130687 -0.104549 1.888 33 24 25
-0.104549 -0.104549 1.888 36 29 23
-0.0779136 -0.103885 1.876 29 26 21
-0.0522747 -0.104549 1.888 27 18 13
-0.0261373 -0.104549 1.888 33 25 22
0 -0.103885 1.876 31 26 20
0.0258189 -0.103276 1.865 36 28 26
0.0519424 -0.103885 1.876 38 28 27
0.0998009 -0.133068 2.403 63 45 43
0.133068 -0.133068 2.403 77 58 52
0.166335 -0.133068 2.403 78 64 61
0.199602 -0.133068 2.403 80 61 54
0.232869 -0.133068 2.403 83 70 64
0.266136 -0.133068 2.403 87 69 55
0.299403 -0.133068 2.403 86 65 64
0.33267 -0.133068 2.403 90 72 62
0.36883 -0.13412 2.422 84 67 57
0.399204 -0.133068 2.403 91 75 60
0.43589 -0.13412 2.422 88 74 65
0.46942 -0.13412 2.422 87 70 62
0.50295 -0.13412 2.422 92 74 60
0.532271 -0.133068 2.403 79 66 60
0.565538 -0.133068 2.403 51 41 42
0.546226 -0.121384 2.192 30 21 24
0.560264 -0.11795 2.13 30 21 24
0.573416 -0.114683 2.071 29 20 21
0.559641 -0.106598 1.925 29 25 22
0.568016 -0.103276 1.865 46 35 33
0.565497 -0.0983473 1.776 47 38 31
0.579784 -0.0966306 1.745 45 44 42
0.583522 -0.0933635 1.686 49 46 39
0.556831 -0.0856662 1.547 80 70 61
0.563669 -0.0835066 1.508 139 123 110
0.573305 -0.0819007 1.479 149 135 109
0.582137 -0.0802948 1.45 148 131 115
0.593489 -0.0791319 1.429 177 157 133
0.607693 -0.078412 1.416 178 157 138
0.618436 -0.0773045 1.396 121 82 75
0.634564 -0.0769169 1.389 158 71 87
0.648145 -0.0762524 1.377 174 109 131
0.663816 -0.0758647 1.37 184 128 137
0.676802 -0.0752002 1.358 183 145 142
0.689455 -0.0745357 1.346 187 130 137
0.704933 -0.0742035 1.34 150 94 93
0.723484 -0.0742035 1.34 123 97 70
-1.23748 -0.0951909 2.292 27 21 21
-1.19681 -0.0944848 2.275 13 13 11
-1.17402 -0.0951909 2.292 37 26 32
-1.14229 -0.0951909 2.292 86 77 68
-1.11056 -0.0951909 2.292 96 78 68
-1.0873 -0.0959384 2.31 89 82 64
-1.05532 -0.0959384 2.31 107 90 80
-1.02334 -0.0959384 2.31 95 81 70
-0.999089 -0.096686 2.328 102 85 78
-0.96686 -0.096686 2.328 110 95 72
-0.934631 -0.096686 2.328 108 91 84
-0.902403 -0.096686 2.328 105 88 78
-0.870174 -0.096686 2.328 108 92 79
-0.837945 -0.096686 2.328 115 93 80
-0.811946 -0.0974336 2.346 115 98 88
-0.779469 -0.0974336 2.346 122 103 86
-0.746991 -0.0974336 2.346 125 104 87
-0.714513 -0.0974336 2.346 118 99 85
-0.548884 -0.078412 1.888 84 71 65
-0.516379 -0.0774568 1.865 38 28 29
-0.49056 -0.0774568 1.865 28 22 22
-0.464741 -0.0774568 1.865 27 24 19
-0.438922 -0.0774568 1.865 37 28 21
-0.418197 -0.078412 1.888 35 28 20
-0.39206 -0.078412 1.888 36 24 26
-0.365923 -0.078412 1.888 39 28 26
-0.341945 -0.0789104 1.9 37 22 25
-0.313648 -0.078412 1.888 31 21 22
-0.287511 -0.078412 1.888 33 25 23
-0.261373 -0.078412 1.888 35 26 21
-0.235236 -0.078412 1.888 31 21 19
-0.20777 -0.0779136 1.876 28 17 11
-0.184124 -0.0789104 1.9 35 26 21
-0.157821 -0.0789104 1.9 33 22 20
-0.130687 -0.078412 1.888 35 23 25
-0.105214 -0.0789104 1.9 39 28 26
-0.078412 -0.078412 1.888 34 26 23
-0.0522747 -0.078412 1.888 40 31 26
-0.0261373 -0.078412 1.888 38 29 24
0 -0.078412 1.888 31 24 14
0.0261373 -0.078412 1.888 27 20 12
0.0519424 -0.0779136 1.876 36 27 22
0.101421 -0.101421 2.442 64 51 42
0.13412 -0.10059 2.422 81 63 59
0.16765 -0.10059 2.422 77 64 58
0.20118 -0.10059 2.422 84 66 64
0.23471 -0.10059 2.422 86 68 54
0.266136 -0.0998009 2.403 88 70 60
0.299403 -0.0998009 2.403 91 70 65
0.33267 -0.0998009 2.403 86 69 61
0.36883 -0.10059 2.422 91 74 64
0.40236 -0.10059 2.422 91 72 65
0.439489 -0.101421 2.442 94 74 67
0.46942 -0.10059 2.422 96 76 69
0.50295 -0.10059 2.422 94 77 67
0.53648 -0.10059 2.422 79 65 54
0.565538 -0.0998009 2.403 69 60 51
0.546226 -0.0910377 2.192 28 23 19
0.564209 -0.0890857 2.145 31 27 28
0.569539 -0.0854309 2.057 27 22 18
0.574177 -0.0820253 1.975 22 17 13
0.564362 -0.0769584 1.853 36 34 35
0.565497 -0.0737605 1.776 51 34 40
0.576461 -0.0720577 1.735 49 38 42
0.586983 -0.0704379 1.696 48 34 33
0.590305 -0.0681121 1.64 45 31 30
0.561053 -0.0623392 1.501 129 116 97
0.56749 -0.0608025 1.464 160 143 117
0.579327 -0.0599304 1.443 156 143 127
0.590582 -0.0590582 1.422 156 143 127
0.59911 -0.0579784 1.396 137 72 70
0.612677 -0.0574385 1.383 127 35 36
0.625884 -0.0568986 1.37 73 12 7
0.642026 -0.0566494 1.364 162 107 110
0.655095 -0.056151 1.352 181 130 137
0.670821 -0.0559018 1.346 191 131 139
0.689455 -0.0559018 1.346 179 130 133
0.701777 -0.0554034 1.334 177 107 117
0.717005 -0.0551542 1.328 177 140 124
-1.15126 -0.063959 2.31 22 22 20
-1.11928 -0.063959 2.31 13 11 14
-1.09577 -0.0644573 2.328 43 33 31
-1.06355 -0.0644573 2.328 130 117 111
-1.03132 -0.0644573 2.328 149 139 127
-0.999089 -0.0644573 2.328 155 138 131
-0.96686 -0.0644573 2.328 160 146 133
-0.934631 -0.0644573 2.328 156 141 134
-0.902403 -0.0644573 2.328 160 140 139
-0.870174 -0.0644573 2.328 154 147 128
-0.844424 -0.0649557 2.346 165 146 140
-0.818522 -0.0654818 2.365 162 145 137
-0.785781 -0.0654818 2.365 171 153 143
-0.75304 -0.0654818 2.365 171 154 144
-0.7203 -0.0654818 2.365 169 150 143
-0.548884 -0.0522747 1.888 149 131 129
-0.522747 -0.0522747 1.888 36 27 28
-0.493453 -0.0519424 1.876 30 25 22
-0.470472 -0.0522747 1.888 32 24 22
-0.441511 -0.0519424 1.876 41 29 33
-0.420855 -0.0526069 1.9 39 32 26
-0.394552 -0.0526069 1.9 35 28 22
-0.370574 -0.0529392 1.912 40 29 23
-0.341945 -0.0526069 1.9 38 31 25
-0.315642 -0.0526069 1.9 35 28 20
-0.289338 -0.0526069 1.9 30 20 18
-0.263035 -0.0526069 1.9 38 28 27
-0.236731 -0.0526069 1.9 36 25 29
-0.210428 -0.0526069 1.9 39 27 27
-0.185287 -0.0529392 1.912 34 25 26
-0.158818 -0.0529392 1.912 33 24 19
-0.131517 -0.0526069 1.9 29 19 17
-0.105878 -0.0529392 1.912 35 25 23
-0.0789104 -0.0526069 1.9 38 26 26
-0.0526069 -0.0526069 1.9 45 31 30
-0.0263035 -0.0526069 1.9 37 30 24
0 -0.0526069 1.9 34 26 24
0.0263035 -0.0526069 1.9 33 24 29
0.0522747 -0.0522747 1.888 36 27 22
0.101421 -0.0676138 2.442 97 79 69
0.135228 -0.0676138 2.442 116 93 87
0.16765 -0.06706 2.422 110 92 78
0.20118 -0.06706 2.422 112 94 90
0.236648 -0.0676138 2.442 117 93 89
0.26824 -0.06706 2.422 120 102 100
0.30177 -0.06706 2.422 116 97 90
0.3353 -0.06706 2.422 123 102 97
0.371876 -0.0676138 2.442 122 102 95
0.405683 -0.0676138 2.442 116 99 89
0.439489 -0.0676138 2.442 118 103 98
0.473296 -0.0676138 2.442 120 101 94
0.50295 -0.06706 2.422 120 106 95
0.54091 -0.0676138 2.442 109 92 85
0.574717 -0.0676138 2.442 102 93 86
0.60354 -0.06706 2.422 61 45 48
0.560264 -0.0589751 2.13 30 24 24
0.577292 -0.0577292 2.085 35 30 27
0.585806 -0.055791 2.015 25 22 13
0.564362 -0.0513056 1.853 34 30 27
0.568999 -0.0494782 1.787 36 29 23
0.573139 -0.0477616 1.725 39 34 31
0.583522 -0.0466817 1.686 42 32 31
0.590305 -0.0454081 1.64 52 45 35
0.596936 -0.0442175 1.597 70 61 52
0.564777 -0.0403412 1.457 146 129 111
0.570896 -0.0393721 1.422 169 141 120
0.582276 -0.0388184 1.402 120 32 31
0.593531 -0.0382923 1.383 61 28 23
0.60426 -0.0377662 1.364 47 26 21
0.617661 -0.037434 1.352 104 26 26
0.630729 -0.0371017 1.34 112 33 26
0.640559 -0.0366034 1.322 121 44 54
0.65886 -0.0366034 1.322 167 123 110
0.674089 -0.0364372 1.316 156 96 104
0.692307 -0.0364372 1.316 169 107 108
0.713765 -0.0366034 1.322 177 148 132
-1.03929 -0.0324779 2.346 19 13 17
-0.999089 -0.0322287 2.328 32 23 28
-0.974336 -0.0324779 2.346 82 68 67
-0.934631 -0.0322287 2.328 120 103 96
-0.90938 -0.0324779 2.346 129 111 111
-0.884004 -0.0327409 2.365 123 110 101
-0.844424 -0.0324779 2.346 130 112 112
-0.818522 -0.0327409 2.365 140 122 112
-0.785781 -0.0327409 2.365 144 121 115
-0.75909 -0.0330039 2.384 140 116 112
-0.726086 -0.0330039 2.384 136 119 109
-0.682035 -0.0324779 2.346 132 120 108
-0.526069 -0.0263035 1.9 28 21 13
-0.499766 -0.0263035 1.9 32 24 22
-0.476453 -0.0264696 1.912 31 26 20
-0.447159 -0.0263035 1.9 37 28 21
-0.423513 -0.0264696 1.912 30 23 13
-0.399743 -0.0266496 1.925 35 28 22
-0.373094 -0.0266496 1.925 31 24 18
-0.346444 -0.0266496 1.925 37 28 23
-0.319795 -0.0266496 1.925 32 25 19
-0.293145 -0.0266496 1.925 30 19 23
-0.264696 -0.0264696 1.912 31 22 23
-0.239846 -0.0266496 1.925 26 22 21
-0.211757 -0.0264696 1.912 23 18 12
-0.18771 -0.0268157 1.937 24 19 16
-0.159897 -0.0266496 1.925 27 18 11
-0.134078 -0.0268157 1.937 20 12 9
-0.106598 -0.0266496 1.925 25 20 14
-0.0799487 -0.0266496 1.925 27 22 18
-0.0532991 -0.0266496 1.925 25 18 12
-0.0266496 -0.0266496 1.925 26 19 13
0 -0.0264696 1.912 29 21 18
0.0264696 -0.0264696 1.912 34 28 30
0.0529392 -0.0264696 1.912 34 24 25
0.102251 -0.0340838 2.462 81 62 56
0.135228 -0.0338069 2.442 88 71 55
0.169034 -0.0338069 2.442 94 76 66
0.202841 -0.0338069 2.442 95 77 67
0.236648 -0.0338069 2.442 101 84 74
0.27267 -0.0340838 2.462 100 88 74
0.306754 -0.0340838 2.462 105 86 71
0.338069 -0.0338069 2.442 107 87 78
0.374921 -0.0340838 2.462 103 84 77
0.412328 -0.0343606 2.482 112 93 86
0.443089 -0.0340838 2.462 115 97 83
0.477173 -0.0340838 2.462 113 96 86
0.507103 -0.0338069 2.442 109 89 78
0.54091 -0.0338069 2.442 109 91 79
0.574717 -0.0338069 2.442 94 78 65
0.608524 -0.0338069 2.442 78 65 57
0.552373 -0.0290723 2.1 15 11 8
0.569539 -0.028477 2.057 20 16 17
0.582026 -0.0277155 2.002 29 24 21
0.589945 -0.0268157 1.937 31 26 20
0.572502 -0.0248914 1.798 35 26 29
0.569816 -0.0237423 1.715 45 37 26
0.580407 -0.0232163 1.677 43 35 32
0.590305 -0.022704 1.64 46 37 32
0.596936 -0.0221088 1.597 47 37 38
0.55935 -0.0199768 1.443 95 75 66
0.568487 -0.019603 1.416 142 125 105
0.576877 -0.0192292 1.389 160 134 121
0.587952 -0.0189662 1.37 162 150 128
0.598944 -0.018717 1.352 163 149 122
0.609437 -0.0184678 1.334 159 120 105
0.622257 -0.0183017 1.322 166 134 119
0.632321 -0.0180663 1.305 186 156 128
0.647398 -0.0179833 1.299 185 155 129
0.656673 -0.0177479 1.282 171 152 135
0.671791 -0.0176787 1.277 163 142 113
0.689469 -0.0176787 1.277 156 138 116
-1.08045 0 2.365 28 23 19
-0.998009 0 2.403 27 26 31
-0.949486 0 2.365 100 88 72
-0.90938 0 2.346 116 92 82
-0.884004 0 2.365 110 86 84
-0.851263 0 2.365 119 98 79
-0.831674 0 2.403 120 97 79
-0.792094 0 2.384 130 104 91
-0.76514 0 2.403 136 113 97
-0.731873 0 2.403 128 101 90
-0.693083 0 2.384 129 99 97
-0.529392 0 1.912 34 27 17
-0.502922 0 1.912 35 25 23
-0.479692 0 1.925 36 29 23
-0.453043 0 1.925 35 26 21
-0.429051 0 1.937 30 19 13
-0.399743 0 1.925 35 26 19
-0.37542 0 1.937 40 30 28
-0.348604 0 1.937 40 30 28
-0.321788 0 1.937 35 28 22
-0.294973 0 1.937 30 20 11
-0.268157 0 1.937 34 24 15
-0.239846 0 1.925 33 24 15
-0.213197 0 1.925 35 26 11
-0.18771 0 1.937 26 22 13
-0.160894 0 1.937 37 29 26
-0.134978 0 1.95 29 24 18
-0.107983 0 1.95 35 27 25
-0.0804471 0 1.937 33 26 18
-0.0536314 0 1.937 35 28 18
-0.0268157 0 1.937 30 23 17
0 0 1.937 29 21 19
0.0266496 0 1.925 32 25 15
0.0536314 0 1.937 36 26 17
0.101421 0 2.442 56 38 24
0.13412 0 2.422 61 41 30
0.16765 0 2.422 67 53 40
0.20118 0 2.422 76 52 42
0.23471 0 2.422 71 52 37
0.26824 0 2.422 79 54 50
0.304262 0 2.442 72 51 34
0.3353 0 2.422 85 64 47
0.371876 0 2.442 81 61 50
0.405683 0 2.442 87 68 53
0.43589 0 2.422 80 57 51
0.46942 0 2.422 83 64 49
0.50295 0 2.422 87 66 61
0.532271 0 2.403 82 65 55
0.561067 0 2.384 70 53 33
0.598805 0 2.403 63 49 38
0.548427 0 2.085 31 23 21
0.565663 0 2.043 34 27 21
0.577956 0 1.988 27 22 16
0.58629 0 1.925 30 21 22
0.586512 0 1.842 33 30 11
0.569816 0 1.715 48 39 34
0.577292 0 1.668 55 44 42
0.587066 0 1.631 44 34 32
0.593572 0 1.588 43 31 33
0.599664 0 1.547 41 36 33
0.565677 0 1.409 115 102 85
0.576877 0 1.389 157 145 121
0.585377 0 1.364 159 143 120
0.596286 0 1.346 159 138 117
0.603955 0 1.322 168 147 130
0.614255 0 1.305 170 150 125
0.626992 0 1.294 175 159 134
0.638925 0 1.282 171 154 126
0.654112 0 1.277 175 156 139
0.663373 0 1.261 170 153 125
0.680831 0 1.261 173 157 124
-0.789104 0.0263035 1.9 15 11 8
-0.934631 0.0322287 2.328 112 91 74
-0.902403 0.0322287 2.328 113 85 74
-0.863446 0.0319795 2.31 115 93 79
-0.837945 0.0322287 2.328 118 90 78
-0.811946 0.0324779 2.346 114 86 74
-0.779469 0.0324779 2.346 109 79 71
-0.746991 0.0324779 2.346 115 94 75
-0.714513 0.0324779 2.346 110 87 73
-0.682035 0.0324779 2.346 113 85 81
-0.529392 0.0264696 1.912 44 32 34
-0.506342 0.0266496 1.925 35 25 24
-0.482682 0.0268157 1.937 35 26 19
-0.455867 0.0268157 1.937 35 25 23
-0.431931 0.0269957 1.95 33 23 21
-0.404935 0.0269957 1.95 32 25 19
-0.377939 0.0269957 1.95 33 23 21
-0.350944 0.0269957 1.95 36 28 25
-0.323948 0.0269957 1.95 32 27 24
-0.296952 0.0269957 1.95 33 25 22
-0.269957 0.0269957 1.95 30 20 19
-0.242961 0.0269957 1.95 32 23 26
-0.215965 0.0269957 1.95 29 23 23
-0.18897 0.0269957 1.95 29 21 18
-0.162971 0.0271618 1.962 33 22 16
-0.135809 0.0271618 1.962 34 26 23
-0.107983 0.0269957 1.95 37 29 27
-0.080987 0.0269957 1.95 28 21 15
-0.0539913 0.0269957 1.95 30 19 15
-0.0269957 0.0269957 1.95 28 16 16
0 0.0269957 1.95 25 15 14
0.0268157 0.0268157 1.937 32 23 16
0.0539913 0.0269957 1.95 38 23 30
0.0990118 0.0330039 2.384 51 33 31
0.132016 0.0330039 2.384 58 39 33
0.16502 0.0330039 2.384 61 47 38
0.196445 0.0327409 2.365 64 45 38
0.231027 0.0330039 2.384 66 49 42
0.264031 0.0330039 2.384 70 51 45
0.294668 0.0327409 2.365 70 54 41
0.327409 0.0327409 2.365 73 54 50
0.363043 0.0330039 2.384 69 50 44
0.396047 0.0330039 2.384 66 49 39
0.429051 0.0330039 2.384 76 55 54
0.458373 0.0327409 2.365 86 63 57
0.491113 0.0327409 2.365 78 54 54
0.523854 0.0327409 2.365 78 57 56
0.556595 0.0327409 2.365 72 58 45
0.584601 0.0324779 2.346 65 51 38
0.617079 0.0324779 2.346 47 36 34
0.55791 0.0278955 2.015 18 14 13
0.585806 0.0278955 2.015 21 17 14
0.589945 0.0268157 1.937 28 24 25
0.593835 0.0258189 1.865 25 19 19
0.560181 0.0233409 1.686 33 25 23
0.573831 0.0229532 1.658 50 38 40
0.587066 0.0225795 1.631 42 31 25
0.593572 0.0219842 1.588 46 34 38
0.599664 0.0214166 1.547 41 37 34
0.605423 0.0208766 1.508 45 31 28
0.574385 0.0191462 1.383 146 129 113
0.582802 0.0188001 1.358 164 141 125
0.59097 0.0184678 1.334 158 139 125
0.598473 0.0181355 1.31 166 151 128
0.609078 0.017914 1.294 172 155 135
0.618754 0.0176787 1.277 178 158 134
0.628459 0.0174572 1.261 170 152 132
0.643355 0.017388 1.256 172 153 138
0.657587 0.0173049 1.25 167 147 122
0.674892 0.0173049 1.25 170 152 128
-0.831286 0.0536314 1.937 15 11 10
-0.794088 0.0529392 1.912 20 18 23
-0.913353 0.0629899 2.275 106 80 67
-0.881858 0.0629899 2.275 102 77 70
-0.844009 0.0625192 2.258 109 88 71
-0.818868 0.0629899 2.275 118 91 82
-0.799487 0.063959 2.31 117 88 84
-0.761527 0.0634606 2.292 105 83 70
-0.735528 0.063959 2.31 113 91 78
-0.698066 0.0634606 2.292 117 94 80
-0.671569 0.063959 2.31 106 76 65
-0.536314 0.0536314 1.937 41 30 28
-0.512918 0.0539913 1.95 30 20 21
-0.485922 0.0539913 1.95 35 25 23
-0.46175 0.0543236 1.962 30 23 15
-0.437468 0.0546835 1.975 31 23 20
-0.410126 0.0546835 1.975 34 24 22
-0.380265 0.0543236 1.962 32 20 20
-0.353103 0.0543236 1.962 24 19 15
-0.323948 0.0539913 1.95 33 25 23
-0.29878 0.0543236 1.962 21 20 18
-0.273418 0.0546835 1.975 35 26 21
-0.242961 0.0539913 1.95 35 28 22
-0.217294 0.0543236 1.962 32 26 26
-0.191392 0.0546835 1.975 25 20 17
-0.164051 0.0546835 1.975 32 25 19
-0.136709 0.0546835 1.975 37 27 25
-0.110087 0.0550435 1.988 32 22 23
-0.0820253 0.0546835 1.975 25 21 12
-0.0546835 0.0546835 1.975 33 26 20
-0.0271618 0.0543236 1.962 30 21 16
0 0.0543236 1.962 32 22 20
0.0269957 0.0539913 1.95 30 21 22
0.0543236 0.0543236 1.962 36 22 19
0.096686 0.0644573 2.328 55 39 39
0.128915 0.0644573 2.328 58 41 34
0.161143 0.0644573 2.328 69 46 38
0.193372 0.0644573 2.328 72 54 42
0.223856 0.063959 2.31 75 55 48
0.257829 0.0644573 2.328 66 49 42
0.290058 0.0644573 2.328 77 59 57
0.322287 0.0644573 2.328 81 60 55
0.357256 0.0649557 2.346 82 58 48
0.386744 0.0644573 2.328 82 58 54
0.418973 0.0644573 2.328 78 58 59
0.451201 0.0644573 2.328 75 55 48
0.479692 0.063959 2.31 77 58 54
0.511672 0.063959 2.31 75 58 48
0.547887 0.0644573 2.328 77 58 52
0.575631 0.063959 2.31 72 51 46
0.60761 0.063959 2.31 56 38 34
0.644573 0.0644573 2.328 23 20 13
0.582026 0.0554311 2.002 25 23 24
0.589945 0.0536314 1.937 33 29 30
0.590014 0.0513056 1.853 31 25 27
0.597393 0.0497828 1.798 23 19 18
0.567601 0.0454081 1.64 40 34 34
0.580947 0.0446882 1.614 54 42 44
0.590582 0.0437468 1.58 47 35 35
0.596563 0.0426116 1.539 46 34 36
0.602612 0.0415595 1.501 48 40 37
0.568986 0.0379324 1.37 81 76 57
0.580227 0.037434 1.352 153 137 112
0.585654 0.0366034 1.322 125 114 108
0.596189 0.0361327 1.305 107 93 90
0.603429 0.0354958 1.282 85 70 75
0.611002 0.0349144 1.261 118 102 102
0.620485 0.0344714 1.245 168 153 134
0.630037 0.0340561 1.23 171 153 133
0.641805 0.0337792 1.22 174 158 132
0.658694 0.0337792 1.22 185 163 139
-0.826441 0.075131 1.809 10 12 7
-0.810257 0.078412 1.888 10 8 9
-0.814854 0.0814854 1.962 19 15 12
-0.899703 0.0930727 2.241 99 79 78
-0.862089 0.0923667 2.224 112 90 77
-0.837655 0.0930727 2.241 115 93 80
-0.80663 0.0930727 2.241 115 90 83
-0.78149 0.0937788 2.258 114 91 75
-0.75023 0.0937788 2.258 119 92 81
-0.718971 0.0937788 2.258 121 94 83
-0.682533 0.0930727 2.241 120 93 86
-0.661394 0.0944848 2.275 114 90 86
-0.620485 0.0930727 2.241 61 47 36
-0.516074 0.0814854 1.962 29 26 19
-0.488912 0.0814854 1.962 32 26 26
-0.46175 0.0814854 1.962 39 27 29
-0.437468 0.0820253 1.975 33 22 20
-0.412826 0.0825652 1.988 38 29 20
-0.385304 0.0825652 1.988 33 26 16
-0.355443 0.0820253 1.975 30 22 20
-0.328101 0.0820253 1.975 26 21 15
-0.300759 0.0820253 1.975 28 19 20
-0.273418 0.0820253 1.975 29 23 25
-0.247696 0.0825652 1.988 31 23 21
-0.218734 0.0820253 1.975 24 18 20
-0.191392 0.0820253 1.975 23 18 15
-0.166293 0.0831466 2.002 24 15 18
-0.137609 0.0825652 1.988 34 25 20
-0.110087 0.0825652 1.988 28 20 17
-0.0825652 0.0825652 1.988 30 18 18
-0.0550435 0.0825652 1.988 33 24 19
-0.0275217 0.0825652 1.988 26 19 13
0 0.0825652 1.988 26 18 15
0.0273418 0.0820253 1.975 30 23 17
0.0546835 0.0820253 1.975 35 24 18
0.0944848 0.0944848 2.275 59 38 37
0.126921 0.0951909 2.292 62 44 44
0.156298 0.0937788 2.258 66 46 37
0.187558 0.0937788 2.258 68 47 44
0.222112 0.0951909 2.292 73 49 47
0.250077 0.0937788 2.258 73 53 44
0.283454 0.0944848 2.275 76 56 45
0.312596 0.0937788 2.258 72 52 41
0.349033 0.0951909 2.292 72 53 39
0.377939 0.0944848 2.275 75 57 47
0.409434 0.0944848 2.275 82 63 57
0.440929 0.0944848 2.275 79 60 53
0.472424 0.0944848 2.275 79 61 49
0.503919 0.0944848 2.275 76 56 47
0.531413 0.0937788 2.258 79 62 52
0.562673 0.0937788 2.258 69 49 38
0.593932 0.0937788 2.258 69 51 41
0.629899 0.0944848 2.275 55 41 28
0.577956 0.0825652 1.988 22 17 23
0.58629 0.0799487 1.925 27 22 26
0.597338 0.0779136 1.876 20 16 15
0.597393 0.0746742 1.798 28 27 22
0.555488 0.0666585 1.605 26 18 15
0.577707 0.0666585 1.605 51 42 37
0.587592 0.065288 1.572 54 45 40
0.593462 0.0635852 1.531 41 36 30
0.602612 0.0623392 1.501 43 32 30
0.608025 0.0608025 1.464 33 32 27
0.555335 0.0537421 1.294 59 49 39
0.582996 0.0546558 1.316 108 90 90
0.591163 0.0537421 1.294 94 78 78
0.595898 0.0525792 1.266 111 96 93
0.605672 0.0519147 1.25 87 75 79
0.615501 0.0512918 1.235 88 80 69
0.624915 0.0506688 1.22 103 90 82
0.636544 0.0502535 1.21 131 119 107
0.647896 0.0498382 1.2 173 152 131
-0.846542 0.102611 1.853 21 11 19
-0.836395 0.104549 1.888 12 13 5
-0.820557 0.105878 1.912 16 15 13
-0.80987 0.107983 1.95 21 12 15
-0.886455 0.12227 2.208 85 67 55
-0.843483 0.120498 2.176 109 85 73
-0.819339 0.121384 2.192 113 88 81
-0.788993 0.121384 2.192 122 93 85
-0.764185 0.12227 2.208 118 93 88
-0.733618 0.12227 2.208 120 93 82
-0.70305 0.12227 2.208 123 97 84
-0.672483 0.12227 2.208 109 86 72
-0.641915 0.12227 2.208 105 87 73
-0.611348 0.12227 2.208 70 46 44
-0.519493 0.109367 1.975 31 23 21
-0.495391 0.110087 1.988 21 21 11
-0.467869 0.110087 1.988 23 20 15
-0.443449 0.110862 2.002 36 26 24
-0.415733 0.110862 2.002 31 23 21
-0.385304 0.110087 1.988 34 27 19
-0.357783 0.110087 1.988 31 24 14
-0.330261 0.110087 1.988 31 22 17
-0.302739 0.110087 1.988 36 27 20
-0.275217 0.110087 1.988 31 22 23
-0.247696 0.110087 1.988 30 25 22
-0.220174 0.110087 1.988 25 15 16
-0.194009 0.110862 2.002 29 20 21
-0.166293 0.110862 2.002 25 20 17
-0.138578 0.110862 2.002 32 23 16
-0.110862 0.110862 2.002 25 20 14
-0.0836866 0.111582 2.015 33 24 19
-0.0554311 0.110862 2.002 30 25 19
-0.0275217 0.110087 1.988 36 25 29
0 0.110087 1.988 25 16 19
0.0275217 0.110087 1.988 28 20 17
0.0550435 0.110087 1.988 40 31 22
0.0930727 0.124097 2.241 61 42 36
0.124097 0.124097 2.241 66 45 40
0.153944 0.123156 2.224 73 54 47
0.184733 0.123156 2.224 73 54 39
0.21717 0.124097 2.241 66 52 43
0.248194 0.124097 2.241 72 55 47
0.279218 0.124097 2.241 77 60 53
0.310242 0.124097 2.241 66 52 39
0.341267 0.124097 2.241 78 55 49
0.372291 0.124097 2.241 78 60 50
0.400256 0.123156 2.224 96 74 60
0.431045 0.123156 2.224 86 61 54
0.458511 0.12227 2.208 89 64 60
0.489078 0.12227 2.208 86 64 53
0.523411 0.123156 2.224 81 62 58
0.550213 0.12227 2.208 82 64 54
0.584989 0.123156 2.224 77 58 54
0.615778 0.123156 2.224 45 35 26
0.632612 0.120498 2.176 23 16 23
0.58629 0.106598 1.925 22 22 22
0.586512 0.102002 1.842 37 28 29
0.597393 0.0995655 1.798 29 22 30
0.603941 0.0966306 1.745 26 21 17
0.574828 0.088435 1.597 48 38 36
0.584228 0.0865522 1.563 52 44 41
0.593462 0.0847802 1.531 52 43 34
0.599401 0.0826759 1.493 42 36 36
0.610933 0.0814577 1.471 47 40 32
0.613272 0.0791319 1.429 36 33 24
0.575464 0.0719331 1.299 65 65 57
0.585681 0.0709917 1.282 97 88 79
0.593545 0.0698288 1.261 80 69 63
0.600827 0.0686659 1.24 97 86 80
0.608025 0.0675584 1.22 129 111 99
0.619793 0.0670046 1.21 175 154 133
0.629179 0.0662294 1.196 174 158 132
0.640337 0.0656756 1.186 165 147 123
-0.878467 0.118712 1.715 12 10 13
-0.859708 0.119404 1.725 14 10 9
-0.855693 0.122242 1.766 18 14 11
-0.86184 0.126741 1.831 21 16 22
-0.846542 0.128264 1.853 20 15 12
-0.841711 0.131517 1.9 10 11 6
-0.820557 0.132348 1.912 9 8 6
-0.814854 0.135809 1.962 14 13 9
-0.782874 0.134978 1.95 76 64 50
-0.831466 0.148476 2.145 96 76 65
-0.801771 0.148476 2.145 106 80 63
-0.772076 0.148476 2.145 104 84 75
-0.747572 0.149514 2.16 106 79 68
-0.722985 0.150622 2.176 109 82 65
-0.687766 0.149514 2.16 119 91 77
-0.657864 0.149514 2.16 108 82 65
-0.627961 0.149514 2.16 113 86 75
-0.593905 0.148476 2.145 92 68 58
-0.526595 0.138578 2.002 37 32 26
-0.49888 0.138578 2.002 32 27 21
-0.471164 0.138578 2.002 29 19 20
-0.446328 0.139478 2.015 38 28 27
-0.418433 0.139478 2.015 28 25 20
-0.388018 0.138578 2.002 28 23 19
-0.365161 0.140447 2.029 28 18 16
-0.334746 0.139478 2.015 24 16 14
-0.308983 0.140447 2.029 25 20 16
-0.280893 0.140447 2.029 30 21 22
-0.25106 0.139478 2.015 27 20 14
-0.223164 0.139478 2.015 30 20 18
-0.196625 0.140447 2.029 32 24 22
-0.168536 0.140447 2.029 27 20 14
-0.140447 0.140447 2.029 26 16 14
-0.111582 0.139478 2.015 28 19 22
-0.0836866 0.139478 2.015 31 23 21
-0.0554311 0.138578 2.002 32 23 24
-0.0278955 0.139478 2.015 27 17 18
0 0.138578 2.002 26 17 20
0.0277155 0.138578 2.002 34 26 23
0.0611348 0.152837 2.208 38 27 21
0.0910377 0.151729 2.192 50 37 31
0.121384 0.151729 2.192 65 47 45
0.150622 0.150622 2.176 68 49 43
0.182075 0.151729 2.192 69 54 47
0.212421 0.151729 2.192 70 49 44
0.242767 0.151729 2.192 74 50 46
0.27112 0.150622 2.176 71 51 44
0.301244 0.150622 2.176 73 54 47
0.333805 0.151729 2.192 90 65 58
0.364151 0.151729 2.192 90 71 54
0.394497 0.151729 2.192 87 70 54
0.424842 0.151729 2.192 93 74 59
0.455188 0.151729 2.192 86 66 55
0.48199 0.150622 2.176 86 68 56
0.51588 0.151729 2.192 77 56 51
0.546226 0.151729 2.192 76 58 56
0.576572 0.151729 2.192 63 50 33
0.611348 0.152837 2.208 49 39 47
0.637264 0.151729 2.192 23 19 16
0.590014 0.128264 1.853 34 29 23
0.597393 0.124457 1.798 40 31 34
0.603941 0.120788 1.745 32 29 22
0.581237 0.107637 1.555 50 40 31
0.590748 0.105491 1.524 51 45 47
0.599401 0.103345 1.493 47 36 34
0.610933 0.101822 1.471 46 41 37
0.613272 0.0989149 1.429 43 37 37
0.615335 0.0961461 1.389 55 46 39
0.583397 0.0883935 1.277 149 130 115
0.588367 0.0865246 1.25 158 141 123
0.598404 0.0854863 1.235 161 145 120
0.605533 0.0841019 1.215 164 141 123
0.617232 0.0834097 1.205 162 147 124
0.623918 0.0820945 1.186 155 133 119
0.637638 0.0817484 1.181 160 142 122
-0.929038 0.14669 1.766 26 21 18
-0.893833 0.144946 1.745 14 9 13
-0.869676 0.144946 1.745 10 6 3
-0.855693 0.14669 1.766 19 13 17
-0.86184 0.152089 1.831 11 9 12
-0.852025 0.154914 1.865 11 9 12
-0.847027 0.158818 1.912 14 13 8
-0.836866 0.161974 1.95 13 11 14
-0.814854 0.162971 1.962 13 12 8
-0.80897 0.167373 2.015 54 40 40
-0.819838 0.175679 2.115 80 60 53
-0.784951 0.174434 2.1 85 67 45
-0.755879 0.174434 2.1 93 74 60
-0.737189 0.176925 2.13 112 85 66
-0.702718 0.175679 2.115 123 97 80
-0.678214 0.176925 2.13 117 90 73
-0.648727 0.176925 2.13 115 93 79
-0.610517 0.174434 2.1 116 97 83
-0.585598 0.175679 2.115 114 89 84
-0.530015 0.167373 2.015 28 24 23
-0.49888 0.166293 2.002 36 26 27
-0.474224 0.167373 2.015 36 28 26
-0.449429 0.168536 2.029 35 25 24
-0.42134 0.168536 2.029 33 21 23
-0.393251 0.168536 2.029 33 25 22
-0.365161 0.168536 2.029 34 25 16
-0.337072 0.168536 2.029 34 26 24
-0.311115 0.169699 2.043 37 28 33
-0.280893 0.168536 2.029 38 30 19
-0.252804 0.168536 2.029 31 20 24
-0.224715 0.168536 2.029 33 25 23
-0.197982 0.169699 2.043 32 19 13
-0.169699 0.169699 2.043 33 24 25
-0.141416 0.169699 2.043 38 29 20
-0.113133 0.169699 2.043 33 23 22
-0.0848494 0.169699 2.043 32 24 21
-0.0561787 0.168536 2.029 34 25 18
-0.0280893 0.168536 2.029 32 24 21
0 0.167373 2.015 33 23 22
0.0278955 0.167373 2.015 37 26 22
0.0593905 0.178171 2.145 50 38 24
0.0890857 0.178171 2.145 65 48 40
0.118781 0.178171 2.145 71 51 44
0.148476 0.178171 2.145 77 59 47
0.178171 0.178171 2.145 62 47 40
0.206413 0.176925 2.13 78 56 45
0.235901 0.176925 2.13 72 54 52
0.259781 0.173188 2.085 39 30 23
0.28477 0.170862 2.057 59 46 38
0.317511 0.173188 2.085 43 33 31
0.356343 0.178171 2.145 96 72 60
0.388738 0.179417 2.16 82 65 49
0.41864 0.179417 2.16 91 71 62
0.445428 0.178171 2.145 96 71 64
0.471801 0.176925 2.13 85 66 59
0.504819 0.178171 2.145 73 55 43
0.534514 0.178171 2.145 69 52 45
0.560264 0.176925 2.13 82 61 58
0.593905 0.178171 2.145 73 54 48
0.627961 0.179417 2.16 56 37 39
0.653295 0.178171 2.145 40 25 18
0.590014 0.153917 1.853 24 15 18
0.597393 0.149348 1.798 32 28 29
0.60048 0.144115 1.735 32 29 24
0.614061 0.141706 1.706 26 25 23
0.578247 0.128499 1.547 43 32 36
0.590748 0.126589 1.524 47 43 31
0.602612 0.124678 1.501 51 46 42
0.605118 0.121024 1.457 52 37 40
0.613272 0.118698 1.429 49 37 37
0.618436 0.115957 1.396 42 32 31
0.61492 0.111804 1.346 73 55 55
0.588367 0.103829 1.25 145 128 110
0.598404 0.102584 1.235 156 139 121
0.608025 0.101338 1.22 168 145 127
0.614671 0.0996763 1.2 150 131 114
0.621288 0.0980981 1.181 161 144 126
0.632778 0.0973505 1.172 160 147 113
-0.90459 0.171139 1.766 16 21 17
-0.880142 0.171139 1.766 13 14 8
-0.867018 0.178504 1.842 12 11 6
-0.85705 0.181798 1.876 16 13 8
-0.847027 0.185287 1.912 22 17 13
-0.831286 0.18771 1.937 15 16 11
-0.831466 0.194009 2.002 18 13 17
-0.820211 0.197982 2.043 42 27 24
-0.802782 0.200695 2.071 95 73 59
-0.774111 0.200695 2.071 109 89 80
-0.74544 0.200695 2.071 116 91 84
-0.721615 0.202052 2.085 115 92 74
-0.69275 0.202052 2.085 105 84 63
-0.659428 0.200695 2.071 109 82 65
-0.635021 0.202052 2.085 116 86 78
-0.606156 0.202052 2.085 109 86 72
-0.577292 0.202052 2.085 116 98 78
-0.548427 0.202052 2.085 97 70 59
-0.516074 0.200695 2.071 23 19 10
-0.480814 0.197982 2.043 22 18 15
-0.458732 0.200695 2.071 26 25 20
-0.430062 0.200695 2.071 21 17 14
-0.398677 0.199339 2.057 19 14 8
-0.37272 0.200695 2.071 27 22 16
-0.344049 0.200695 2.071 28 24 23
-0.317511 0.202052 2.085 25 21 20
-0.286708 0.200695 2.071 25 20 17
-0.258037 0.200695 2.071 27 21 21
-0.227816 0.199339 2.057 28 24 15
-0.202052 0.202052 2.085 32 24 22
-0.173188 0.202052 2.085 24 20 19
-0.144323 0.202052 2.085 23 18 14
-0.113908 0.199339 2.057 26 21 15
-0.0860123 0.200695 2.071 26 21 17
-0.0573416 0.200695 2.071 24 18 20
-0.0286708 0.200695 2.071 23 18 15
0 0.199339 2.057 25 20 14
0.0288646 0.202052 2.085 36 25 23
0.0585598 0.204959 2.115 61 44 34
0.0878397 0.204959 2.115 70 50 39
0.11712 0.204959 2.115 69 47 36
0.1464 0.204959 2.115 80 61 47
0.174434 0.203506 2.1 58 41 21
0.200695 0.200695 2.071 101 77 43
0.227816 0.199339 2.057 41 36 14
0.25106 0.195269 2.015 32 33 19
0.278955 0.195269 2.015 38 34 22
0.317511 0.202052 2.085 18 13 9
0.346375 0.202052 2.085 73 52 47
0.380639 0.204959 2.115 88 64 62
0.407012 0.203506 2.1 87 66 61
0.439199 0.204959 2.115 95 73 62
0.461834 0.202052 2.085 101 76 56
0.494228 0.203506 2.1 90 68 55
0.519563 0.202052 2.085 83 66 58
0.556318 0.204959 2.115 86 67 50
0.585598 0.204959 2.115 73 58 39
0.614878 0.204959 2.115 66 51 44
0.639589 0.203506 2.1 62 48 35
0.597393 0.17424 1.798 33 25 23
0.603941 0.169104 1.745 34 22 24
0.603623 0.162514 1.677 23 21 8
0.575257 0.149141 1.539 34 25 28
0.587647 0.146912 1.516 48 37 41
0.59378 0.143326 1.479 43 30 37
0.605118 0.141194 1.457 55 42 33
0.610268 0.137802 1.422 52 43 38
0.615335 0.134605 1.389 44 41 32
0.617661 0.131019 1.352 38 33 30
0.625081 0.128693 1.328 78 64 53
0.595981 0.119196 1.23 153 136 116
0.605533 0.117743 1.215 157 142 113
0.61006 0.115417 1.191 157 141 118
0.619184 0.11406 1.177 164 147 117
0.630619 0.113188 1.168 158 139 124
-0.865869 0.197913 1.787 24 19 15
-0.86184 0.202786 1.831 12 14 11
-0.868014 0.210428 1.9 21 16 20
-0.852786 0.213197 1.925 14 8 12
-0.842016 0.217294 1.962 15 16 10
-0.820253 0.218734 1.975 18 16 19
-0.820211 0.226265 2.043 58 43 38
-0.786501 0.224715 2.029 106 82 72
-0.758412 0.224715 2.029 118 91 80
-0.730323 0.224715 2.029 119 88 85
-0.707079 0.226265 2.043 117 93 65
-0.678796 0.226265 2.043 118 91 82
-0.650512 0.226265 2.043 116 95 74
-0.617965 0.224715 2.029 122 93 85
-0.593946 0.226265 2.043 123 95 84
-0.569539 0.227816 2.057 121 92 84
-0.53738 0.226265 2.043 108 86 75
-0.509097 0.226265 2.043 103 79 67
-0.480814 0.226265 2.043 103 80 72
-0.455631 0.227816 2.057 106 82 72
-0.427154 0.227816 2.057 97 76 71
-0.398677 0.227816 2.057 100 73 64
-0.370201 0.227816 2.057 112 88 76
-0.346375 0.230917 2.085 107 88 73
-0.315379 0.229366 2.071 96 78 66
-0.286708 0.229366 2.071 96 80 65
-0.256293 0.227816 2.057 99 81 69
-0.227816 0.227816 2.057 96 78 76
-0.202052 0.230917 2.085 94 72 58
-0.170862 0.227816 2.057 95 71 71
-0.144323 0.230917 2.085 90 71 64
-0.114683 0.229366 2.071 88 64 62
-0.0865938 0.230917 2.085 84 64 63
-0.0573416 0.229366 2.071 87 71 58
-0.0286708 0.229366 2.071 84 65 59
0 0.227816 2.057 81 63 61
0.0286708 0.229366 2.071 79 60 54
0.0573416 0.229366 2.071 91 67 57
0.0860123 0.229366 2.071 92 69 63
0.114683 0.229366 2.071 104 81 73
0.143354 0.229366 2.071 105 83 72
0.172025 0.229366 2.071 62 50 36
0.197982 0.226265 2.043 34 30 19
0.224715 0.224715 2.029 32 22 20
0.25106 0.223164 2.015 34 24 22
0.277155 0.221724 2.002 34 29 25
0.311115 0.226265 2.043 71 52 38
0.339398 0.226265 2.043 113 85 64
0.367681 0.226265 2.043 95 71 59
0.395964 0.226265 2.043 85 67 53
0.430062 0.229366 2.071 97 72 65
0.455631 0.227816 2.057 90 72 58
0.487403 0.229366 2.071 84 63 58
0.512585 0.227816 2.057 92 69 61
0.544745 0.229366 2.071 91 71 62
0.573416 0.229366 2.071 80 59 56
0.606156 0.230917 2.085 74 51 45
0.626493 0.227816 2.057 67 50 42
0.650512 0.226265 2.043 42 31 25
0.60048 0.192154 1.735 34 30 29
0.610462 0.187834 1.696 28 22 26
0.609645 0.180636 1.631 42 33 36
0.581833 0.166238 1.501 49 42 34
0.59378 0.163801 1.479 44 39 33
0.602211 0.16059 1.45 53 40 34
0.610268 0.157489 1.422 53 49 48
0.618436 0.154609 1.396 54 47 31
0.61492 0.149071 1.346 41 35 23
0.619433 0.145749 1.316 48 37 41
0.618754 0.14143 1.277 88 73 52
0.60055 0.133455 1.205 146 130 104
0.61006 0.131905 1.191 159 143 118
0.611819 0.128804 1.163 158 141 121
0.62306 0.127807 1.154 164 149 120
-0.871198 0.224022 1.798 10 8 9
-0.872195 0.230875 1.853 18 17 13
-0.862532 0.235236 1.888 14 16 13
-0.847027 0.238226 1.912 11 9 10
-0.847595 0.246076 1.975 46 31 34
-0.831466 0.24944 2.002 98 80 70
-0.803751 0.24944 2.002 107 84 76
-0.776035 0.24944 2.002 106 83 77
-0.74832 0.24944 2.002 115 96 82
-0.725284 0.25106 2.015 124 101 83
-0.697388 0.25106 2.015 121 96 89
-0.669492 0.25106 2.015 127 101 76
-0.637458 0.24944 2.002 118 94 82
-0.613701 0.25106 2.015 130 102 90
-0.585806 0.25106 2.015 124 95 87
-0.55791 0.25106 2.015 128 96 83
-0.530015 0.25106 2.015 126 97 79
-0.502119 0.25106 2.015 125 96 82
-0.474224 0.25106 2.015 118 94 82
-0.449429 0.252804 2.029 123 93 82
-0.42134 0.252804 2.029 118 89 73
-0.393251 0.252804 2.029 131 98 91
-0.367681 0.254548 2.043 126 100 87
-0.339398 0.254548 2.043 128 98 87
-0.308983 0.252804 2.029 122 91 86
-0.280893 0.252804 2.029 118 90 76
-0.252804 0.252804 2.029 120 91 73
-0.224715 0.252804 2.029 113 92 75
-0.197982 0.254548 2.043 119 90 86
-0.169699 0.254548 2.043 122 92 81
-0.140447 0.252804 2.029 110 83 62
-0.113133 0.254548 2.043 112 89 71
-0.084268 0.252804 2.029 109 83 70
-0.0561787 0.252804 2.029 116 88 77
-0.0280893 0.252804 2.029 119 90 82
0 0.254548 2.043 116 88 77
0.0278955 0.25106 2.015 117 88 80
0.0565663 0.254548 2.043 111 85 84
0.084268 0.252804 2.029 99 74 52
0.112357 0.252804 2.029 103 78 73
0.140447 0.252804 2.029 102 77 70
0.168536 0.252804 2.029 101 77 65
0.196625 0.252804 2.029 91 69 56
0.223164 0.25106 2.015 55 44 40
0.25106 0.25106 2.015 37 26 24
0.278955 0.25106 2.015 32 26 26
0.306851 0.25106 2.015 53 39 28
0.334746 0.25106 2.015 117 89 68
0.360302 0.24944 2.002 65 48 28
0.388018 0.24944 2.002 93 67 44
0.418433 0.25106 2.015 63 43 36
0.449429 0.252804 2.029 94 69 64
0.474224 0.25106 2.015 93 73 66
0.505608 0.252804 2.029 90 72 60
0.530015 0.25106 2.015 87 69 57
0.565663 0.254548 2.043 93 73 62
0.589876 0.252804 2.029 85 65 67
0.617965 0.252804 2.029 74 53 48
0.646055 0.252804 2.029 60 45 40
0.603941 0.217419 1.745 27 22 18
0.606862 0.210068 1.686 31 22 23
0.609645 0.203215 1.631 28 27 25
0.587758 0.182408 1.464 52 41 45
0.599304 0.179791 1.443 49 48 46
0.607693 0.176427 1.416 51 37 36
0.615335 0.173063 1.389 48 48 38
0.620402 0.169201 1.358 47 42 39
0.622257 0.164715 1.322 50 40 38
0.621177 0.159731 1.282 45 34 32
0.622977 0.155744 1.25 108 90 76
0.604938 0.147147 1.181 155 137 115
0.614449 0.145527 1.168 151 134 108
0.62306 0.143783 1.154 159 144 115
-1.04581 0.268157 1.937 19 9 8
-0.959384 0.266496 1.925 22 18 17
-0.872195 0.256528 1.853 17 15 16
-0.868014 0.263035 1.9 8 7 5
-0.863861 0.269957 1.95 78 52 53
-0.842016 0.271618 1.962 104 82 68
-0.814854 0.271618 1.962 111 94 86
-0.787692 0.271618 1.962 107 88 74
-0.76053 0.271618 1.962 119 98 79
-0.733368 0.271618 1.962 119 97 83
-0.701887 0.269957 1.95 115 90 85
-0.683544 0.273418 1.975 125 101 89
-0.656202 0.273418 1.975 117 91 78
-0.62886 0.273418 1.975 123 99 87
-0.601519 0.273418 1.975 118 96 75
-0.574177 0.273418 1.975 122 94 80
-0.546835 0.273418 1.975 123 91 76
-0.519493 0.273418 1.975 126 98 84
-0.492152 0.273418 1.975 129 97 86
-0.46481 0.273418 1.975 119 96 80
-0.440348 0.275217 1.988 119 91 80
-0.412826 0.275217 1.988 122 93 79
-0.385304 0.275217 1.988 129 100 96
-0.357783 0.275217 1.988 125 101 75
-0.330261 0.275217 1.988 124 95 81
-0.304871 0.277155 2.002 120 93 84
-0.275217 0.275217 1.988 119 90 82
-0.247696 0.275217 1.988 122 90 77
-0.220174 0.275217 1.988 117 92 85
-0.194009 0.277155 2.002 113 92 75
-0.16513 0.275217 1.988 106 83 65
-0.137609 0.275217 1.988 116 89 78
-0.110862 0.277155 2.002 110 84 71
-0.0831466 0.277155 2.002 116 90 73
-0.0550435 0.275217 1.988 118 92 77
-0.0275217 0.275217 1.988 114 88 73
0 0.275217 1.988 118 90 78
0.0275217 0.275217 1.988 119 90 82
0.0554311 0.277155 2.002 114 89 69
0.0831466 0.277155 2.002 113 83 75
0.110862 0.277155 2.002 111 88 72
0.138578 0.277155 2.002 112 83 75
0.16513 0.275217 1.988 118 90 78
0.194009 0.277155 2.002 112 91 72
0.221724 0.277155 2.002 109 81 69
0.247696 0.275217 1.988 103 82 65
0.277155 0.277155 2.002 101 77 67
0.304871 0.277155 2.002 101 81 70
0.332587 0.277155 2.002 49 36 28
0.357783 0.275217 1.988 35 27 16
0.385304 0.275217 1.988 42 33 24
0.412826 0.275217 1.988 38 29 22
0.443449 0.277155 2.002 100 78 64
0.467869 0.275217 1.988 89 61 57
0.495391 0.275217 1.988 99 72 63
0.522913 0.275217 1.988 100 76 74
0.550435 0.275217 1.988 97 77 68
0.582026 0.277155 2.002 78 61 54
0.605478 0.275217 1.988 73 56 48
0.633 0.275217 1.988 62 52 40
0.656202 0.273418 1.975 48 38 29
0.603941 0.241577 1.745 22 19 14
0.606862 0.233409 1.686 39 30 33
0.609645 0.225794 1.631 32 26 26
0.615556 0.219842 1.588 37 28 29
0.584948 0.201706 1.457 48 39 34
0.593489 0.19783 1.429 50 41 36
0.607693 0.19603 1.416 42 39 34
0.612677 0.191462 1.383 41 31 19
0.617661 0.18717 1.352 51 41 40
0.622257 0.183017 1.322 52 45 39
0.621177 0.177479 1.282 52 43 36
0.622977 0.173049 1.25 51 40 34
0.602889 0.162943 1.177 120 109 89
0.611819 0.161005 1.163 146 134 112
0.616041 0.157959 1.141 158 137 110
-1.03231 0.291166 1.912 105 83 72
-0.999532 0.289338 1.9 84 67 57
-0.967082 0.287511 1.888 24 11 18
-0.877844 0.284008 1.865 22 18 15
-0.873497 0.291166 1.912 70 52 48
-0.852786 0.293145 1.925 96 82 69
-0.826136 0.293145 1.925 110 88 75
-0.799487 0.293145 1.925 113 89 79
-0.782874 0.296952 1.95 116 95 74
-0.750839 0.294973 1.937 120 101 84
-0.719538 0.293145 1.925 131 103 91
-0.692889 0.293145 1.925 123 93 83
-0.670392 0.294973 1.937 124 97 88
-0.647896 0.296952 1.95 126 102 92
-0.6209 0.296952 1.95 123 96 85
-0.589945 0.294973 1.937 126 96 86
-0.56313 0.294973 1.937 127 99 87
-0.539913 0.296952 1.95 129 101 87
-0.509498 0.294973 1.937 126 95 90
-0.482682 0.294973 1.937 120 92 80
-0.455867 0.294973 1.937 128 100 89
-0.434589 0.29878 1.962 124 89 85
-0.407427 0.29878 1.962 118 91 82
-0.380265 0.29878 1.962 118 89 73
-0.353103 0.29878 1.962 118 87 84
-0.323948 0.296952 1.95 133 104 86
-0.29878 0.29878 1.962 118 90 86
-0.271618 0.29878 1.962 120 92 81
-0.244456 0.29878 1.962 115 87 73
-0.217294 0.29878 1.962 117 90 83
-0.190133 0.29878 1.962 117 95 84
-0.162971 0.29878 1.962 116 93 77
-0.135809 0.29878 1.962 123 94 76
-0.108647 0.29878 1.962 128 100 79
-0.080987 0.296952 1.95 121 93 79
-0.0539913 0.296952 1.95 121 95 78
-0.0269957 0.296952 1.95 119 93 76
0 0.29878 1.962 116 89 78
0.0269957 0.296952 1.95 115 88 81
0.0543236 0.29878 1.962 115 93 82
0.0814854 0.29878 1.962 109 85 75
0.108647 0.29878 1.962 101 79 65
0.135809 0.29878 1.962 105 78 67
0.162971 0.29878 1.962 107 78 70
0.190133 0.29878 1.962 111 85 70
0.217294 0.29878 1.962 99 81 67
0.244456 0.29878 1.962 101 76 69
0.269957 0.296952 1.95 96 69 62
0.29878 0.29878 1.962 90 66 62
0.325942 0.29878 1.962 96 67 63
0.355443 0.300759 1.975 100 71 63
0.380265 0.29878 1.962 101 76 72
0.407427 0.29878 1.962 101 82 67
0.434589 0.29878 1.962 98 71 64
0.46175 0.29878 1.962 90 71 57
0.488912 0.29878 1.962 92 75 65
0.516074 0.29878 1.962 92 72 65
0.543236 0.29878 1.962 97 73 63
0.574177 0.300759 1.975 88 68 57
0.597559 0.29878 1.962 70 51 44
0.616761 0.294973 1.937 77 58 52
0.651883 0.29878 1.962 70 56 47
0.610462 0.258272 1.696 30 24 24
0.613009 0.249744 1.64 31 25 27
0.615556 0.241826 1.588 33 25 23
0.590568 0.224009 1.471 38 32 32
0.593489 0.217613 1.429 49 41 28
0.601685 0.213501 1.402 56 44 46
0.610019 0.209694 1.377 51 41 40
0.617661 0.205887 1.352 61 47 46
0.622257 0.201318 1.322 54 43 41
0.626992 0.197054 1.294 54 39 46
0.625967 0.191268 1.256 48 43 37
0.627476 0.186547 1.225 48 36 40
0.611819 0.177105 1.163 131 112 98
0.613881 0.173146 1.137 161 141 117
-1.01936 0.313648 1.888 104 88 75
-0.986906 0.311655 1.876 112 81 78
-0.960935 0.311655 1.876 105 88 78
-0.934964 0.311655 1.876 85 62 56
-0.903663 0.309827 1.865 21 14 6
-0.877844 0.309827 1.865 64 54 45
-0.868014 0.315642 1.9 116 89 78
-0.841711 0.315642 1.9 111 94 74
-0.820557 0.317635 1.912 115 94 75
-0.789104 0.315642 1.9 121 96 76
-0.762801 0.315642 1.9 119 91 80
-0.736497 0.315642 1.9 116 93 75
-0.710194 0.315642 1.9 128 97 92
-0.68389 0.315642 1.9 132 104 93
-0.653434 0.313648 1.888 124 102 88
-0.631283 0.315642 1.9 128 101 80
-0.60498 0.315642 1.9 121 94 77
-0.578676 0.315642 1.9 132 107 87
-0.555861 0.317635 1.912 128 101 84
-0.529392 0.317635 1.912 125 106 89
-0.502922 0.317635 1.912 126 101 79
-0.476453 0.317635 1.912 131 97 87
-0.449983 0.317635 1.912 128 97 79
-0.426393 0.319795 1.925 129 102 85
-0.399743 0.319795 1.925 129 99 88
-0.373094 0.319795 1.925 120 93 82
-0.346444 0.319795 1.925 125 100 78
-0.319795 0.319795 1.925 135 102 95
-0.293145 0.319795 1.925 115 93 70
-0.266496 0.319795 1.925 115 80 74
-0.239846 0.319795 1.925 120 92 80
-0.211757 0.317635 1.912 125 93 80
-0.18771 0.321788 1.937 124 93 73
-0.160894 0.321788 1.937 118 92 79
-0.133248 0.319795 1.925 137 103 93
-0.106598 0.319795 1.925 125 96 78
-0.0799487 0.319795 1.925 128 96 83
-0.0532991 0.319795 1.925 122 94 82
-0.0266496 0.319795 1.925 119 90 76
0 0.321788 1.937 130 101 87
0.0264696 0.317635 1.912 126 99 82
0.0532991 0.319795 1.925 119 87 76
0.0799487 0.319795 1.925 113 83 73
0.107263 0.321788 1.937 111 87 75
0.133248 0.319795 1.925 114 87 76
0.159897 0.319795 1.925 112 83 75
0.185287 0.317635 1.912 105 77 65
0.213197 0.319795 1.925 105 83 59
0.238226 0.317635 1.912 105 80 75
0.264696 0.317635 1.912 98 75 57
0.293145 0.319795 1.925 95 73 60
0.319795 0.319795 1.925 107 76 58
0.346444 0.319795 1.925 99 76 62
0.373094 0.319795 1.925 103 75 64
0.399743 0.319795 1.925 105 80 73
0.426393 0.319795 1.925 97 76 75
0.453043 0.319795 1.925 89 67 56
0.479692 0.319795 1.925 91 65 52
0.506342 0.319795 1.925 86 70 47
0.536314 0.321788 1.937 89 64 59
0.559641 0.319795 1.925 92 70 59
0.58629 0.319795 1.925 83 60 52
0.61294 0.319795 1.925 84 61 55
0.63959 0.319795 1.925 84 63 62
0.66174 0.317635 1.912 63 42 37
0.603623 0.278595 1.677 20 12 10
0.609645 0.270953 1.631 31 26 22
0.612455 0.262481 1.58 36 32 31
0.617868 0.25567 1.539 30 25 29
0.593489 0.237396 1.429 44 34 32
0.596106 0.230751 1.389 55 46 41
0.606918 0.227594 1.37 62 42 54
0.61492 0.223607 1.346 41 35 23
0.622257 0.21962 1.322 46 37 32
0.624084 0.213972 1.288 47 39 37
0.633941 0.211314 1.272 49 38 36
0.624915 0.202675 1.22 55 48 38
0.626549 0.197857 1.191 77 58 54
0.611182 0.188056 1.132 150 131 117
-1.00046 0.333486 1.853 84 72 60
-0.974806 0.333486 1.853 104 83 78
-0.949154 0.333486 1.853 103 85 81
-0.929481 0.335646 1.865 102 90 74
-0.897848 0.333486 1.853 120 89 86
-0.877844 0.335646 1.865 114 90 80
-0.852025 0.335646 1.865 118 95 77
-0.826206 0.335646 1.865 111 93 83
-0.800387 0.335646 1.865 118 96 85
-0.779136 0.337626 1.876 126 102 90
-0.748749 0.335646 1.865 124 94 83
-0.72293 0.335646 1.865 117 94 86
-0.701223 0.337626 1.876 123 96 85
-0.675252 0.337626 1.876 119 92 71
-0.64928 0.337626 1.876 123 95 84
-0.623309 0.337626 1.876 130 100 76
-0.601159 0.339785 1.888 119 96 82
-0.571367 0.337626 1.876 129 94 88
-0.545395 0.337626 1.876 125 97 85
-0.519424 0.337626 1.876 137 105 90
-0.493453 0.337626 1.876 125 94 92
-0.467482 0.337626 1.876 127 102 80
-0.441511 0.337626 1.876 126 99 82
-0.418197 0.339785 1.888 125 98 81
-0.39206 0.339785 1.888 125 96 80
-0.363597 0.337626 1.876 131 98 89
-0.339785 0.339785 1.888 122 97 77
-0.313648 0.339785 1.888 123 91 78
-0.287511 0.339785 1.888 120 93 72
-0.261373 0.339785 1.888 122 95 84
-0.233741 0.337626 1.876 123 97 80
-0.209099 0.339785 1.888 120 93 84
-0.184124 0.341945 1.9 115 88 79
-0.157821 0.341945 1.9 132 104 83
-0.131517 0.341945 1.9 120 92 80
-0.104549 0.339785 1.888 115 89 76
-0.078412 0.339785 1.888 125 97 85
-0.0526069 0.341945 1.9 129 101 80
-0.0263035 0.341945 1.9 121 94 77
0 0.339785 1.888 130 102 88
0.0261373 0.339785 1.888 121 99 76
