ply
format ascii 1.0
element vertex 1409
property float x
property float y
property float z
property uchar red
property uchar green
property uchar blue
end_header
-1.16998 -0.246311 2.224 115 102 86
-1.13099 -0.244539 2.208 118 99 85
-1.1084 -0.246311 2.224 118 103 82
-1.08585 -0.248194 2.241 127 103 103
-1.05482 -0.248194 2.241 122 103 89
-1.03157 -0.250077 2.258 120 108 92
-1.00031 -0.250077 2.258 125 102 96
-0.969047 -0.250077 2.258 126 102 100
-0.937788 -0.250077 2.258 116 106 96
-0.906528 -0.250077 2.258 123 100 94
-0.868679 -0.248194 2.241 124 106 96
-0.837655 -0.248194 2.241 123 105 93
-0.812749 -0.250077 2.258 132 105 96
-0.787374 -0.25196 2.275 122 102 91
-0.75023 -0.250077 2.258 119 102 94
-0.724384 -0.25196 2.275 124 104 93
-0.692889 -0.25196 2.275 119 97 86
-0.661394 -0.25196 2.275 121 106 101
-0.625192 -0.250077 2.258 121 102 87
-0.470043 -0.197913 1.787 37 26 24
-0.445304 -0.197913 1.787 37 32 26
-0.423154 -0.199131 1.798 32 27 24
-0.398262 -0.199131 1.798 43 27 28
-0.373371 -0.199131 1.798 38 26 26
-0.348479 -0.199131 1.798 37 30 24
-0.325568 -0.200349 1.809 37 28 23
-0.298697 -0.199131 1.798 31 21 19
-0.27548 -0.200349 1.809 30 20 18
-0.250437 -0.200349 1.809 32 27 23
-0.224022 -0.199131 1.798 29 24 20
-0.199131 -0.199131 1.798 24 21 14
-0.175306 -0.200349 1.809 27 21 21
-0.150262 -0.200349 1.809 26 15 11
-0.12598 -0.201568 1.82 24 14 13
-0.100175 -0.200349 1.809 24 19 15
-0.075131 -0.200349 1.809 23 14 15
-0.0497828 -0.199131 1.798 28 18 19
-0.0248914 -0.199131 1.798 31 20 26
0 -0.199131 1.798 26 15 21
0.0248914 -0.199131 1.798 37 26 22
0.0500873 -0.200349 1.809 30 25 21
0.0746742 -0.199131 1.798 36 28 25
0.0995655 -0.199131 1.798 37 27 26
0.159897 -0.255836 2.31 65 52 43
0.193372 -0.257829 2.328 79 63 47
0.223856 -0.255836 2.31 87 74 58
0.255836 -0.255836 2.31 87 74 57
0.287815 -0.255836 2.31 90 73 63
0.319795 -0.255836 2.31 100 82 70
0.354515 -0.257829 2.328 102 89 70
0.386744 -0.257829 2.328 103 83 74
0.418973 -0.257829 2.328 99 81 77
0.451201 -0.257829 2.328 97 83 70
0.479692 -0.255836 2.31 101 81 70
0.515659 -0.257829 2.328 95 74 69
0.543651 -0.255836 2.31 92 73 66
0.575631 -0.255836 2.31 94 73 68
0.612345 -0.257829 2.328 80 62 60
0.634606 -0.253842 2.292 49 38 36
0.602086 -0.229366 2.071 30 27 18
0.605478 -0.220174 1.988 41 30 28
0.61294 -0.213197 1.925 43 29 29
0.612012 -0.204004 1.842 44 33 37
0.629899 -0.201568 1.82 39 30 25
0.610462 -0.187834 1.696 63 53 44
0.609645 -0.180636 1.631 136 127 112
0.612455 -0.174987 1.58 159 140 125
0.624292 -0.172218 1.555 106 42 43
0.639174 -0.170446 1.539 156 121 99
0.654043 -0.168785 1.524 172 157 136
0.668053 -0.167013 1.508 173 152 135
0.678879 -0.164577 1.486 162 145 119
0.689095 -0.16214 1.464 161 142 128
0.702579 -0.16059 1.45 168 142 129
0.719164 -0.159814 1.443 172 146 129
0.735556 -0.159039 1.436 160 117 108
0.762801 -0.16059 1.45 164 119 124
0.775315 -0.159039 1.436 160 103 110
-1.20077 -0.215522 2.224 116 101 78
-1.16998 -0.215522 2.224 108 101 82
-1.13919 -0.215522 2.224 120 102 88
-1.11687 -0.21717 2.241 121 104 94
-1.08585 -0.21717 2.241 120 102 80
-1.06283 -0.218817 2.258 115 97 83
-1.03157 -0.218817 2.258 123 103 96
-1.00031 -0.218817 2.258 122 104 100
-0.969047 -0.218817 2.258 121 98 92
-0.937788 -0.218817 2.258 117 94 86
-0.906528 -0.218817 2.258 120 96 84
-0.881858 -0.220465 2.275 113 93 82
-0.850363 -0.220465 2.275 115 101 88
-0.818868 -0.220465 2.275 120 102 88
-0.787374 -0.220465 2.275 124 105 91
-0.761527 -0.222112 2.292 125 105 94
-0.724384 -0.220465 2.275 120 100 91
-0.698066 -0.222112 2.292 123 100 92
-0.671569 -0.223856 2.31 116 101 94
-0.634606 -0.222112 2.292 118 99 93
-0.478723 -0.176372 1.82 45 33 33
-0.450786 -0.175306 1.809 34 24 22
-0.428331 -0.176372 1.82 30 24 24
-0.405572 -0.177438 1.831 34 24 22
-0.380224 -0.177438 1.831 39 30 23
-0.354875 -0.177438 1.831 36 26 17
-0.325568 -0.175306 1.809 35 24 20
-0.302351 -0.176372 1.82 40 31 24
-0.278831 -0.177438 1.831 35 26 27
-0.25196 -0.176372 1.82 36 26 25
-0.225393 -0.175306 1.809 35 26 19
-0.201568 -0.176372 1.82 37 25 25
-0.177438 -0.177438 1.831 36 26 24
-0.151176 -0.176372 1.82 33 26 20
-0.126741 -0.177438 1.831 41 30 26
-0.100784 -0.176372 1.82 32 23 18
-0.0755879 -0.176372 1.82 33 23 21
-0.0503919 -0.176372 1.82 37 28 21
-0.025196 -0.176372 1.82 36 26 24
0 -0.175306 1.809 35 31 22
0.0250437 -0.175306 1.809 40 31 26
0.0503919 -0.176372 1.82 35 26 29
0.075131 -0.175306 1.809 33 25 22
0.100784 -0.176372 1.82 35 30 27
0.161143 -0.225601 2.328 66 48 44
0.193372 -0.225601 2.328 80 63 55
0.225601 -0.225601 2.328 88 72 57
0.257829 -0.225601 2.328 90 72 68
0.290058 -0.225601 2.328 81 67 58
0.319795 -0.223856 2.31 94 75 69
0.357256 -0.227345 2.346 91 76 69
0.389734 -0.227345 2.346 98 81 74
0.422212 -0.227345 2.346 98 80 70
0.451201 -0.225601 2.328 102 82 75
0.48343 -0.225601 2.328 102 85 77
0.515659 -0.225601 2.328 93 75 71
0.547887 -0.225601 2.328 93 76 69
0.580116 -0.225601 2.328 84 74 65
0.612345 -0.225601 2.328 82 67 62
0.615778 -0.215522 2.224 38 30 19
0.6236 -0.207867 2.145 21 16 20
0.605478 -0.192652 1.988 28 27 23
0.608801 -0.185287 1.912 42 34 32
0.612012 -0.178504 1.842 41 34 28
0.622285 -0.17424 1.798 37 32 28
0.628099 -0.169104 1.745 43 39 36
0.606655 -0.157281 1.623 79 54 50
0.609354 -0.152339 1.572 98 26 27
0.614657 -0.148365 1.531 121 58 49
0.626299 -0.146137 1.508 167 151 128
0.637734 -0.144005 1.486 168 149 132
0.655205 -0.143326 1.479 164 145 130
0.672026 -0.142551 1.471 169 151 129
0.685801 -0.141194 1.457 168 145 131
0.699188 -0.139838 1.443 172 150 129
0.712187 -0.138481 1.429 177 162 143
0.725311 -0.137221 1.416 171 152 135
0.737549 -0.135864 1.402 158 134 122
0.767757 -0.137802 1.422 167 139 125
-1.20995 -0.186145 2.241 111 94 78
-1.17892 -0.186145 2.241 114 96 76
-1.1479 -0.186145 2.241 110 95 88
-1.11687 -0.186145 2.241 104 94 82
-1.10232 -0.18897 2.275 110 93 85
-1.07083 -0.18897 2.275 108 89 85
-1.03933 -0.18897 2.275 111 93 83
-1.01537 -0.190382 2.292 117 97 90
-0.983639 -0.190382 2.292 112 87 83
-0.951909 -0.190382 2.292 115 93 82
-0.920178 -0.190382 2.292 113 95 91
-0.888448 -0.190382 2.292 113 100 81
-0.856718 -0.190382 2.292 110 98 86
-0.824987 -0.190382 2.292 124 102 78
-0.799487 -0.191877 2.31 117 101 85
-0.767507 -0.191877 2.31 112 99 83
-0.735528 -0.191877 2.31 113 100 84
-0.709031 -0.193372 2.328 121 99 86
-0.671569 -0.191877 2.31 120 102 92
-0.63959 -0.191877 2.31 112 96 81
-0.478723 -0.151176 1.82 59 45 45
-0.453527 -0.151176 1.82 40 32 30
-0.428331 -0.151176 1.82 32 27 23
-0.408008 -0.153003 1.842 34 27 21
-0.380224 -0.152089 1.831 33 28 22
-0.357007 -0.153003 1.842 33 21 23
-0.331507 -0.153003 1.842 27 22 16
-0.306006 -0.153003 1.842 31 28 21
-0.280506 -0.153003 1.842 34 25 20
-0.255005 -0.153003 1.842 33 23 24
-0.228134 -0.152089 1.831 35 27 24
-0.202786 -0.152089 1.831 32 22 30
-0.17957 -0.153917 1.853 38 29 24
-0.153003 -0.153003 1.842 36 31 27
-0.127503 -0.153003 1.842 34 20 20
-0.102002 -0.153003 1.842 36 27 20
-0.0765016 -0.153003 1.842 40 29 27
-0.0506965 -0.152089 1.831 37 27 25
-0.0255005 -0.153003 1.842 35 24 22
0 -0.153003 1.842 33 28 25
0.025196 -0.151176 1.82 31 26 20
0.0506965 -0.152089 1.831 39 28 24
0.0755879 -0.151176 1.82 31 25 25
0.100784 -0.151176 1.82 30 26 25
0.162389 -0.194867 2.346 64 50 41
0.194867 -0.194867 2.346 78 57 52
0.227345 -0.194867 2.346 79 55 53
0.257829 -0.193372 2.328 83 63 54
0.292301 -0.194867 2.346 89 70 63
0.322287 -0.193372 2.328 84 68 55
0.357256 -0.194867 2.346 93 74 67
0.389734 -0.194867 2.346 84 71 63
0.422212 -0.194867 2.346 95 78 62
0.45469 -0.194867 2.346 90 73 65
0.487168 -0.194867 2.346 87 73 62
0.519646 -0.194867 2.346 98 79 65
0.552124 -0.194867 2.346 89 75 66
0.584601 -0.194867 2.346 82 64 60
0.617079 -0.194867 2.346 76 60 60
0.625192 -0.187558 2.258 32 23 26
0.619239 -0.176925 2.13 32 27 23
0.605478 -0.16513 1.988 27 23 20
0.60498 -0.157821 1.9 40 33 27
0.619654 -0.154914 1.865 43 32 26
0.618478 -0.148435 1.787 47 35 37
0.628099 -0.144946 1.745 44 33 31
0.623475 -0.13855 1.668 60 39 38
0.605866 -0.129828 1.563 85 21 22
0.611846 -0.126589 1.524 134 107 90
0.62007 -0.124014 1.493 162 146 133
0.631297 -0.122187 1.471 169 148 131
0.642358 -0.120442 1.45 171 155 132
0.656036 -0.119279 1.436 170 154 131
0.672621 -0.118698 1.429 163 145 131
0.686105 -0.117618 1.416 173 154 140
0.702219 -0.117037 1.409 168 151 131
0.71814 -0.116455 1.402 173 152 131
0.73071 -0.115375 1.389 178 151 132
0.7467 -0.114877 1.383 163 140 124
-1.2283 -0.157475 2.275 106 89 81
-1.18786 -0.156298 2.258 110 86 82
-1.16531 -0.157475 2.275 109 90 86
-1.13382 -0.157475 2.275 103 90 74
-1.11056 -0.158651 2.292 106 90 77
-1.07883 -0.158651 2.292 98 88 78
-1.05532 -0.159897 2.31 102 89 72
-1.02334 -0.159897 2.31 108 94 83
-0.991364 -0.159897 2.31 103 85 83
-0.959384 -0.159897 2.31 106 89 79
-0.927405 -0.159897 2.31 103 90 74
-0.895425 -0.159897 2.31 107 88 81
-0.863446 -0.159897 2.31 111 88 70
-0.831466 -0.159897 2.31 113 94 90
-0.805717 -0.161143 2.328 111 92 88
-0.773488 -0.161143 2.328 116 91 87
-0.741259 -0.161143 2.328 123 104 89
-0.709031 -0.161143 2.328 121 102 87
-0.676802 -0.161143 2.328 118 98 87
-0.644573 -0.161143 2.328 119 103 87
-0.481616 -0.126741 1.831 64 55 40
-0.456268 -0.126741 1.831 41 31 30
-0.433509 -0.127503 1.842 35 23 25
-0.408008 -0.127503 1.842 36 25 21
-0.384792 -0.128264 1.853 34 27 21
-0.359139 -0.128264 1.853 32 23 24
-0.333486 -0.128264 1.853 33 26 20
-0.306006 -0.127503 1.842 36 31 25
-0.280506 -0.127503 1.842 32 20 20
-0.256528 -0.128264 1.853 27 21 21
-0.229505 -0.127503 1.842 28 23 19
-0.204004 -0.127503 1.842 24 22 10
-0.17957 -0.128264 1.853 31 17 17
-0.153917 -0.128264 1.853 31 22 17
-0.128264 -0.128264 1.853 27 15 17
-0.102611 -0.128264 1.853 33 25 22
-0.0769584 -0.128264 1.853 32 23 26
-0.0513056 -0.128264 1.853 32 25 17
-0.0256528 -0.128264 1.853 34 26 24
0 -0.127503 1.842 34 26 15
0.0255005 -0.127503 1.842 44 30 30
0.0513056 -0.128264 1.853 39 25 24
0.0765016 -0.127503 1.842 34 29 23
0.102002 -0.127503 1.842 41 32 25
0.16502 -0.16502 2.384 67 53 42
0.196445 -0.163704 2.365 72 55 48
0.231027 -0.16502 2.384 79 62 55
0.261927 -0.163704 2.365 82 63 57
0.292301 -0.162389 2.346 85 73 59
0.327409 -0.163704 2.365 85 69 54
0.363043 -0.16502 2.384 84 70 57
0.396047 -0.16502 2.384 84 70 59
0.429051 -0.16502 2.384 92 72 63
0.458373 -0.163704 2.365 102 78 76
0.491113 -0.163704 2.365 98 81 74
0.523854 -0.163704 2.365 95 78 70
0.556595 -0.163704 2.365 91 74 67
0.589336 -0.163704 2.365 86 69 59
0.617079 -0.162389 2.346 74 62 48
0.615778 -0.153944 2.224 23 21 22
0.6236 -0.148476 2.145 21 22 16
0.626493 -0.142385 2.057 27 23 22
0.601159 -0.130687 1.888 37 33 32
0.615667 -0.128264 1.853 43 34 35
0.618478 -0.123696 1.787 50 38 38
0.628099 -0.120788 1.745 45 34 30
0.630203 -0.116704 1.686 37 27 25
0.599664 -0.107083 1.547 76 36 34
0.608635 -0.104937 1.516 139 108 113
0.614255 -0.102376 1.479 149 134 111
0.625289 -0.100853 1.457 159 142 122
0.633055 -0.0989149 1.429 176 160 145
0.646899 -0.098015 1.416 180 164 141
0.657088 -0.0966306 1.396 180 161 131
0.673023 -0.0961461 1.389 136 125 105
0.689262 -0.0957308 1.383 136 119 101
0.705334 -0.0953155 1.377 170 144 127
0.720715 -0.0948309 1.37 148 112 90
0.739681 -0.0948309 1.37 91 29 18
-1.23748 -0.126921 2.292 101 87 76
-1.20575 -0.126921 2.292 64 51 45
-1.17402 -0.126921 2.292 16 21 17
-1.15126 -0.127918 2.31 48 39 32
-1.11056 -0.126921 2.292 83 73 64
-1.0873 -0.127918 2.31 94 83 65
-1.06355 -0.128915 2.328 102 89 83
-1.03132 -0.128915 2.328 95 81 72
-0.999089 -0.128915 2.328 100 83 75
-0.959384 -0.127918 2.31 107 87 80
-0.934631 -0.128915 2.328 101 84 76
-0.895425 -0.127918 2.31 110 93 83
-0.863446 -0.127918 2.31 105 88 78
-0.831466 -0.127918 2.31 108 91 81
-0.811946 -0.129911 2.346 112 92 85
-0.779469 -0.129911 2.346 110 93 75
-0.746991 -0.129911 2.346 112 93 79
-0.714513 -0.129911 2.346 116 89 80
-0.682035 -0.129911 2.346 114 95 88
-0.649557 -0.129911 2.346 112 94 80
-0.464741 -0.103276 1.865 34 26 24
-0.438922 -0.103276 1.865 30 20 21
-0.413103 -0.103276 1.865 32 22 21
-0.389568 -0.103885 1.876 31 22 25
-0.361465 -0.103276 1.865 35 32 23
-0.337626 -0.103885 1.876 40 31 22
-0.311655 -0.103885 1.876 32 27 23
-0.284008 -0.103276 1.865 32 21 19
-0.255005 -0.102002 1.842 25 20 14
-0.23237 -0.103276 1.865 20 16 13
-0.205222 -0.102611 1.853 23 23 13
-0.180732 -0.103276 1.865 21 17 14
-0.154914 -0.103276 1.865 34 27 21
-0.128264 -0.102611 1.853 26 21 25
-0.103276 -0.103276 1.865 31 21 20
-0.0774568 -0.103276 1.865 37 30 24
-0.0516379 -0.103276 1.865 33 28 24
-0.0256528 -0.102611 1.853 39 24 29
0 -0.102611 1.853 32 24 22
0.0256528 -0.102611 1.853 28 19 20
0.0516379 -0.103276 1.865 28 25 16
0.0769584 -0.102611 1.853 36 26 25
0.102611 -0.102611 1.853 32 25 15
0.16502 -0.132016 2.384 58 48 39
0.198024 -0.132016 2.384 74 55 48
0.231027 -0.132016 2.384 79 61 51
0.264031 -0.132016 2.384 86 68 64
0.297035 -0.132016 2.384 83 66 58
0.330039 -0.132016 2.384 83 63 62
0.365937 -0.133068 2.403 89 70 64
0.399204 -0.133068 2.403 84 68 55
0.432471 -0.133068 2.403 91 72 66
0.462055 -0.132016 2.384 92 76 63
0.495059 -0.132016 2.384 93 75 63
0.528063 -0.132016 2.384 94 75 68
0.561067 -0.132016 2.384 87 70 62
0.598805 -0.133068 2.403 87 70 62
0.627075 -0.132016 2.384 65 56 47
0.649557 -0.129911 2.346 32 29 24
0.627961 -0.119612 2.16 25 23 24
0.630757 -0.114683 2.071 31 27 26
0.60498 -0.105214 1.9 27 24 19
0.612012 -0.102002 1.842 40 36 27
0.618478 -0.0989564 1.787 41 35 35
0.6245 -0.0960769 1.735 47 38 33
0.633941 -0.0939172 1.696 40 35 31
0.635713 -0.0908162 1.64 35 31 32
0.602612 -0.083119 1.501 131 113 99
0.610933 -0.0814577 1.471 140 130 118
0.61928 -0.0799072 1.443 161 137 127
0.627296 -0.078412 1.416 153 137 122
0.637762 -0.0773045 1.396 174 153 132
0.648145 -0.0762524 1.377 175 160 127
0.663816 -0.0758647 1.37 146 114 103
0.676802 -0.0752002 1.358 154 76 90
0.689455 -0.0745357 1.346 169 97 109
0.704933 -0.0742035 1.34 180 121 125
0.720244 -0.0738712 1.334 170 120 123
-1.23748 -0.0951909 2.292 25 18 26
-1.11056 -0.0951909 2.292 19 18 14
-1.09577 -0.096686 2.328 14 16 13
-1.07177 -0.0974336 2.346 50 42 40
-1.03132 -0.096686 2.328 99 85 82
-1.00681 -0.0974336 2.346 125 110 105
-0.974336 -0.0974336 2.346 128 114 103
-0.934631 -0.096686 2.328 115 103 81
-0.902403 -0.096686 2.328 122 109 100
-0.870174 -0.096686 2.328 120 105 98
-0.837945 -0.096686 2.328 121 106 99
-0.818522 -0.0982227 2.365 120 105 100
-0.785781 -0.0982227 2.365 128 111 95
-0.75304 -0.0982227 2.365 127 109 97
-0.7203 -0.0982227 2.365 129 115 102
-0.687559 -0.0982227 2.365 125 104 99
-0.654818 -0.0982227 2.365 124 102 91
-0.464741 -0.0774568 1.865 39 30 25
-0.438922 -0.0774568 1.865 34 25 20
-0.418197 -0.078412 1.888 30 22 20
-0.39206 -0.078412 1.888 38 29 22
-0.363597 -0.0779136 1.876 31 27 18
-0.337626 -0.0779136 1.876 36 28 26
-0.313648 -0.078412 1.888 35 31 32
-0.287511 -0.078412 1.888 32 27 24
-0.259712 -0.0779136 1.876 39 30 21
-0.233741 -0.0779136 1.876 33 24 19
-0.20777 -0.0779136 1.876 32 24 22
-0.182961 -0.078412 1.888 35 26 19
-0.156824 -0.078412 1.888 32 23 16
-0.130687 -0.078412 1.888 27 22 16
-0.104549 -0.078412 1.888 28 21 15
-0.0779136 -0.0779136 1.876 39 27 27
-0.0519424 -0.0779136 1.876 36 27 22
-0.0261373 -0.078412 1.888 35 27 24
0 -0.0779136 1.876 36 27 18
0.0258189 -0.0774568 1.865 35 28 20
0.0519424 -0.0779136 1.876 26 23 18
0.0779136 -0.0779136 1.876 33 23 22
0.103276 -0.0774568 1.865 35 27 25
0.166335 -0.0998009 2.403 66 48 46
0.199602 -0.0998009 2.403 74 60 59
0.232869 -0.0998009 2.403 75 61 52
0.264031 -0.0990118 2.384 77 63 52
0.299403 -0.0998009 2.403 90 70 61
0.330039 -0.0990118 2.384 91 74 67
0.365937 -0.0998009 2.403 85 66 51
0.40236 -0.10059 2.422 88 69 55
0.432471 -0.0998009 2.403 88 71 63
0.465737 -0.0998009 2.403 85 71 62
0.499004 -0.0998009 2.403 93 79 68
0.532271 -0.0998009 2.403 93 79 66
0.565538 -0.0998009 2.403 90 77 61
0.598805 -0.0998009 2.403 88 74 63
0.632072 -0.0998009 2.403 74 59 54
0.665339 -0.0998009 2.403 37 31 31
0.627961 -0.0897087 2.16 21 19 20
0.626493 -0.0854309 2.057 29 24 18
0.633 -0.0825652 1.988 28 22 24
0.615667 -0.0769584 1.853 30 25 29
0.614671 -0.0737605 1.776 38 32 20
0.617301 -0.071227 1.715 49 44 41
0.626839 -0.0696488 1.677 44 40 37
0.632225 -0.0677384 1.631 38 37 35
0.644366 -0.0666585 1.605 76 64 52
0.608025 -0.0608025 1.464 145 134 114
0.613272 -0.0593489 1.429 156 143 127
0.621094 -0.0582276 1.402 154 138 125
0.631823 -0.0574385 1.383 152 138 125
0.642026 -0.0566494 1.364 133 86 78
0.652188 -0.0559018 1.346 118 36 38
0.670821 -0.0559018 1.346 118 56 61
0.686382 -0.0556526 1.34 177 120 129
0.69862 -0.0551542 1.328 186 135 134
0.717005 -0.0551542 1.328 182 136 136
-1.05613 -0.0660079 2.384 18 20 15
-1.00681 -0.0649557 2.346 20 19 15
-0.96686 -0.0644573 2.328 55 50 46
-0.941858 -0.0649557 2.346 110 93 85
-0.902403 -0.0644573 2.328 132 106 105
-0.876902 -0.0649557 2.346 120 110 101
-0.844424 -0.0649557 2.346 130 112 98
-0.818522 -0.0654818 2.365 131 114 107
-0.785781 -0.0654818 2.365 137 120 113
-0.75304 -0.0654818 2.365 143 124 118
-0.726086 -0.0660079 2.384 144 123 118
-0.693083 -0.0660079 2.384 144 126 116
-0.660079 -0.0660079 2.384 149 126 118
-0.622077 -0.0654818 2.365 134 115 109
-0.467482 -0.0519424 1.876 34 22 26
-0.441511 -0.0519424 1.876 34 22 24
-0.420855 -0.0526069 1.9 35 29 31
-0.394552 -0.0526069 1.9 37 30 20
-0.370574 -0.0529392 1.912 32 28 27
-0.341945 -0.0526069 1.9 33 25 22
-0.315642 -0.0526069 1.9 38 29 22
-0.289338 -0.0526069 1.9 38 28 19
-0.263035 -0.0526069 1.9 36 26 24
-0.236731 -0.0526069 1.9 31 26 20
-0.209099 -0.0522747 1.888 31 23 21
-0.184124 -0.0526069 1.9 29 24 20
-0.157821 -0.0526069 1.9 31 23 21
-0.131517 -0.0526069 1.9 33 29 20
-0.105214 -0.0526069 1.9 35 28 20
-0.0789104 -0.0526069 1.9 37 28 29
-0.0526069 -0.0526069 1.9 38 24 21
-0.0263035 -0.0526069 1.9 34 24 23
0 -0.0522747 1.888 33 25 23
0.0261373 -0.0522747 1.888 40 28 28
0.0526069 -0.0526069 1.9 28 20 17
0.078412 -0.0522747 1.888 29 26 19
0.103885 -0.0519424 1.876 38 28 26
0.166335 -0.0665339 2.403 86 73 57
0.199602 -0.0665339 2.403 107 91 76
0.232869 -0.0665339 2.403 101 84 76
0.266136 -0.0665339 2.403 111 94 84
0.299403 -0.0665339 2.403 112 94 84
0.33267 -0.0665339 2.403 118 101 91
0.36883 -0.06706 2.422 115 96 89
0.40236 -0.06706 2.422 116 97 90
0.43589 -0.06706 2.422 116 97 93
0.46942 -0.06706 2.422 119 102 92
0.499004 -0.0665339 2.403 127 109 97
0.532271 -0.0665339 2.403 126 106 95
0.565538 -0.0665339 2.403 124 108 93
0.598805 -0.0665339 2.403 114 100 91
0.632072 -0.0665339 2.403 107 94 88
0.6706 -0.06706 2.422 77 64 55
0.619239 -0.0589751 2.13 28 24 21
0.630757 -0.0573416 2.071 23 25 14
0.633 -0.0550435 1.988 27 17 25
0.615667 -0.0513056 1.853 26 20 20
0.618478 -0.0494782 1.787 39 28 32
0.617301 -0.0474847 1.715 40 26 25
0.623475 -0.0461833 1.668 45 33 33
0.635713 -0.0454081 1.64 42 33 34
0.637541 -0.0439683 1.588 35 32 27
0.602211 -0.0401474 1.45 116 101 82
0.610268 -0.0393721 1.422 163 147 131
0.618436 -0.0386523 1.396 156 130 107
0.625884 -0.0379324 1.37 89 25 25
0.636378 -0.037434 1.352 78 25 33
0.646373 -0.0369356 1.334 49 26 18
0.65886 -0.0366034 1.322 97 29 26
0.671015 -0.0362711 1.31 111 41 39
0.683364 -0.0359665 1.299 146 96 89
0.704587 -0.0361327 1.305 163 114 117
-0.90938 -0.0324779 2.346 21 17 18
-0.884004 -0.0327409 2.365 88 75 67
-0.851263 -0.0327409 2.365 121 108 92
-0.825098 -0.0330039 2.384 133 114 107
-0.792094 -0.0330039 2.384 130 113 103
-0.76514 -0.033267 2.403 140 117 111
-0.731873 -0.033267 2.403 141 121 110
-0.693083 -0.0330039 2.384 135 117 105
-0.665339 -0.033267 2.403 140 121 107
-0.627075 -0.0330039 2.384 141 122 116
-0.473462 -0.0263035 1.9 30 19 23
-0.447159 -0.0263035 1.9 33 24 17
-0.426393 -0.0266496 1.925 33 23 21
-0.399743 -0.0266496 1.925 39 25 40
-0.373094 -0.0266496 1.925 42 28 25
-0.346444 -0.0266496 1.925 29 19 18
-0.317635 -0.0264696 1.912 29 24 20
-0.293145 -0.0266496 1.925 36 29 21
-0.264696 -0.0264696 1.912 30 26 23
-0.238226 -0.0264696 1.912 28 21 11
-0.211757 -0.0264696 1.912 33 23 22
-0.186547 -0.0266496 1.925 30 24 24
-0.158818 -0.0264696 1.912 33 25 23
-0.132348 -0.0264696 1.912 29 25 22
-0.106598 -0.0266496 1.925 32 21 17
-0.0794088 -0.0264696 1.912 31 27 26
-0.0526069 -0.0263035 1.9 26 21 18
-0.0263035 -0.0263035 1.9 33 24 27
0 -0.0263035 1.9 32 22 20
0.0263035 -0.0263035 1.9 24 18 20
0.0529392 -0.0264696 1.912 28 20 18
0.0789104 -0.0263035 1.9 30 20 18
0.105214 -0.0263035 1.9 31 22 17
0.169034 -0.0338069 2.442 78 63 58
0.199602 -0.033267 2.403 88 69 62
0.23471 -0.03353 2.422 94 76 66
0.26824 -0.03353 2.422 97 80 73
0.30177 -0.03353 2.422 103 82 79
0.33267 -0.033267 2.403 97 78 72
0.36883 -0.03353 2.422 105 88 80
0.405683 -0.0338069 2.442 105 87 77
0.43589 -0.03353 2.422 112 93 89
0.46942 -0.03353 2.422 105 88 81
0.50295 -0.03353 2.422 114 94 93
0.53648 -0.03353 2.422 112 91 90
0.565538 -0.033267 2.403 109 91 79
0.60354 -0.03353 2.422 113 91 78
0.63707 -0.03353 2.422 101 88 82
0.6706 -0.03353 2.422 81 63 59
0.610517 -0.0290723 2.1 35 25 26
0.630757 -0.0286708 2.071 22 22 20
0.633 -0.0275217 1.988 30 24 26
0.63959 -0.0266496 1.925 21 17 16
0.622285 -0.0248914 1.798 29 20 13
0.614061 -0.0236177 1.706 43 35 32
0.623475 -0.0230917 1.668 42 33 28
0.632225 -0.0225795 1.631 53 44 37
0.637541 -0.0219842 1.588 47 41 43
0.645819 -0.0215273 1.555 56 46 37
0.604689 -0.0195061 1.409 133 115 103
0.615335 -0.0192292 1.389 143 106 90
0.620402 -0.0188001 1.358 136 99 91
0.627905 -0.0184678 1.334 169 149 122
0.640559 -0.0183017 1.322 165 143 129
0.650388 -0.0180663 1.305 115 48 55
0.659746 -0.017831 1.288 112 40 28
0.671791 -0.0176787 1.277 130 59 55
0.68677 -0.0176095 1.272 129 83 68
-0.727194 0 1.876 9 7 8
-0.876902 0 2.346 102 79 71
-0.851263 0 2.365 102 84 74
-0.825098 0 2.384 108 86 73
-0.785781 0 2.365 104 88 73
-0.75909 0 2.384 111 86 89
-0.726086 0 2.384 116 90 75
-0.687559 0 2.365 114 91 75
-0.660079 0 2.384 111 84 77
-0.622077 0 2.365 111 89 78
-0.479692 0 1.925 42 28 28
-0.453043 0 1.925 32 27 21
-0.429051 0 1.937 34 25 28
-0.402235 0 1.937 33 26 18
-0.37542 0 1.937 35 30 27
-0.346444 0 1.925 25 20 24
-0.319795 0 1.925 33 23 22
-0.293145 0 1.925 35 25 24
-0.268157 0 1.937 32 24 21
-0.239846 0 1.925 33 28 24
-0.213197 0 1.925 36 27 30
-0.18771 0 1.937 31 26 23
-0.160894 0 1.937 32 23 16
-0.134078 0 1.937 31 24 16
-0.107263 0 1.937 36 25 23
-0.0804471 0 1.937 35 27 24
-0.0532991 0 1.925 32 24 22
-0.0266496 0 1.925 28 20 17
0 0 1.925 33 25 22
0.0264696 0 1.912 31 28 23
0.0532991 0 1.925 25 18 12
0.0794088 0 1.912 31 24 18
0.105214 0 1.9 35 27 25
0.166335 0 2.403 56 46 37
0.199602 0 2.403 62 48 39
0.232869 0 2.403 67 50 40
0.266136 0 2.403 60 47 30
0.299403 0 2.403 70 50 43
0.33267 0 2.403 78 58 51
0.365937 0 2.403 66 47 41
0.40236 0 2.422 76 55 50
0.432471 0 2.403 78 59 55
0.465737 0 2.403 79 63 48
0.499004 0 2.403 82 62 55
0.528063 0 2.384 90 72 52
0.561067 0 2.384 79 61 51
0.594071 0 2.384 91 66 61
0.622077 0 2.365 73 54 50
0.660079 0 2.384 63 53 41
0.687559 0 2.365 36 26 17
0.622229 0 2.043 22 21 16
0.62886 0 1.975 26 26 18
0.63527 0 1.912 24 21 14
0.64132 0 1.853 25 19 21
0.6209 0 1.725 37 30 24
0.616373 0 1.649 52 43 44
0.629124 0 1.623 44 39 36
0.634329 0 1.58 48 40 37
0.642497 0 1.547 39 30 35
0.647176 0 1.508 62 48 45
0.606918 0 1.37 146 129 111
0.61492 0 1.346 159 140 126
0.627905 0 1.334 163 146 130
0.634744 0 1.31 158 140 128
0.644906 0 1.294 170 157 125
0.656673 0 1.282 163 147 121
0.666004 0 1.266 162 142 118
0.680831 0 1.261 165 145 121
-0.753165 0.0259712 1.876 7 5 6
-0.863446 0.0319795 2.31 99 76 68
-0.831466 0.0319795 2.31 101 82 65
-0.805717 0.0322287 2.328 116 89 80
-0.773488 0.0322287 2.328 113 89 79
-0.741259 0.0322287 2.328 114 92 69
-0.709031 0.0322287 2.328 118 89 83
-0.676802 0.0322287 2.328 106 85 68
-0.644573 0.0322287 2.328 108 83 63
-0.612345 0.0322287 2.328 109 87 74
-0.485922 0.0269957 1.95 50 37 29
-0.458926 0.0269957 1.95 34 29 23
-0.431931 0.0269957 1.95 37 26 30
-0.404935 0.0269957 1.95 35 24 20
-0.377939 0.0269957 1.95 39 25 25
-0.350944 0.0269957 1.95 38 28 26
-0.321788 0.0268157 1.937 29 20 13
-0.294973 0.0268157 1.937 37 29 27
-0.268157 0.0268157 1.937 34 27 21
-0.242961 0.0269957 1.95 33 25 23
-0.215965 0.0269957 1.95 27 18 13
-0.18897 0.0269957 1.95 29 19 18
-0.161974 0.0269957 1.95 35 27 25
-0.134978 0.0269957 1.95 32 27 23
-0.107983 0.0269957 1.95 33 25 23
-0.080987 0.0269957 1.95 29 21 18
-0.0539913 0.0269957 1.95 28 21 15
-0.0268157 0.0268157 1.937 33 23 24
0 0.0268157 1.937 33 28 24
0.0266496 0.0266496 1.925 27 18 19
0.0539913 0.0269957 1.95 27 17 16
0.0804471 0.0268157 1.937 30 22 19
0.105878 0.0264696 1.912 31 21 19
0.161143 0.0322287 2.328 55 38 30
0.194867 0.0324779 2.346 58 39 35
0.227345 0.0324779 2.346 61 43 39
0.257829 0.0322287 2.328 60 43 33
0.292301 0.0324779 2.346 59 46 38
0.322287 0.0322287 2.328 70 50 41
0.36015 0.0327409 2.365 76 58 48
0.389734 0.0324779 2.346 73 53 42
0.422212 0.0324779 2.346 71 51 42
0.45469 0.0324779 2.346 81 63 53
0.487168 0.0324779 2.346 84 65 59
0.515659 0.0322287 2.328 85 62 54
0.552124 0.0324779 2.346 80 57 51
0.580116 0.0322287 2.328 88 61 54
0.612345 0.0322287 2.328 72 60 48
0.649557 0.0324779 2.346 66 47 40
0.676802 0.0322287 2.328 61 44 36
0.633 0.0275217 1.988 28 27 23
0.63527 0.0264696 1.912 31 27 26
0.645473 0.0258189 1.865 27 23 24
0.613009 0.022704 1.64 40 30 31
0.625635 0.0223441 1.614 47 36 34
0.631117 0.0217627 1.572 51 42 37
0.642497 0.0214166 1.547 47 42 36
0.644172 0.0207797 1.501 46 35 33
0.60426 0.0188831 1.364 102 88 79
0.61492 0.0186339 1.346 154 138 122
0.622257 0.0183017 1.322 159 143 120
0.629414 0.0179833 1.299 162 146 123
0.638925 0.0177479 1.282 168 151 123
0.645916 0.0174572 1.261 169 155 128
0.657587 0.0173049 1.25 173 154 139
0.672192 0.0172357 1.245 173 152 131
-0.766912 0.0494782 1.787 17 13 14
-0.748749 0.0516379 1.865 16 12 11
-0.844009 0.0625192 2.258 87 69 67
-0.80663 0.0620485 2.241 109 86 68
-0.787374 0.0629899 2.275 110 81 75
-0.755879 0.0629899 2.275 121 95 80
-0.724384 0.0629899 2.275 121 92 88
-0.692889 0.0629899 2.275 119 93 78
-0.661394 0.0629899 2.275 110 85 78
-0.634606 0.0634606 2.292 115 86 78
-0.598404 0.0629899 2.275 112 85 74
-0.485922 0.0539913 1.95 62 45 38
-0.46175 0.0543236 1.962 30 22 19
-0.434589 0.0543236 1.962 31 28 19
-0.410126 0.0546835 1.975 31 26 30
-0.382785 0.0546835 1.975 30 20 19
-0.353103 0.0543236 1.962 31 20 16
-0.323948 0.0539913 1.95 34 25 18
-0.296952 0.0539913 1.95 27 23 12
-0.271618 0.0543236 1.962 31 21 19
-0.241341 0.0536314 1.937 22 16 16
-0.217294 0.0543236 1.962 23 18 14
-0.190133 0.0543236 1.962 27 17 18
-0.162971 0.0543236 1.962 29 24 18
-0.134978 0.0539913 1.95 23 15 13
-0.108647 0.0543236 1.962 26 18 16
-0.0814854 0.0543236 1.962 34 23 19
-0.0543236 0.0543236 1.962 33 21 23
-0.0269957 0.0539913 1.95 24 16 13
0 0.0539913 1.95 31 23 20
0.0269957 0.0539913 1.95 30 20 21
0.0539913 0.0539913 1.95 29 21 19
0.080987 0.0539913 1.95 29 20 25
0.107983 0.0539913 1.95 35 25 24
0.159897 0.063959 2.31 56 42 33
0.190382 0.0634606 2.292 58 40 36
0.222112 0.0634606 2.292 65 49 36
0.255836 0.063959 2.31 72 52 53
0.285573 0.0634606 2.292 69 49 48
0.317303 0.0634606 2.292 68 50 46
0.354515 0.0644573 2.328 62 45 35
0.383754 0.063959 2.31 66 47 40
0.412494 0.0634606 2.292 81 58 50
0.444224 0.0634606 2.292 75 55 48
0.472424 0.0629899 2.275 85 63 50
0.507685 0.0634606 2.292 77 57 46
0.539415 0.0634606 2.292 84 61 45
0.566909 0.0629899 2.275 82 64 52
0.598404 0.0629899 2.275 77 60 52
0.634606 0.0634606 2.292 74 58 43
0.666336 0.0634606 2.292 59 49 40
0.692889 0.0629899 2.275 33 23 14
0.62886 0.0546835 1.975 12 11 6
0.63959 0.0532991 1.925 27 22 19
0.645473 0.0516379 1.865 22 21 16
0.647176 0.0497828 1.798 35 25 24
0.609645 0.0451589 1.631 31 24 14
0.622146 0.044439 1.605 40 29 23
0.631117 0.0435253 1.572 46 37 40
0.642497 0.0428331 1.547 48 38 37
0.640739 0.041338 1.493 35 27 24
0.64856 0.040535 1.464 51 43 41
0.609437 0.0369356 1.334 140 121 106
0.622257 0.0366034 1.322 157 142 121
0.626992 0.0358281 1.294 152 133 116
0.636433 0.0353574 1.277 152 139 122
0.637721 0.0344714 1.245 156 136 127
0.649696 0.0341945 1.235 165 148 132
0.661394 0.0339176 1.225 161 146 123
-0.851485 0.075131 1.809 29 28 26
-0.777918 0.0729298 1.756 21 12 13
-0.776354 0.075131 1.809 14 8 8
-0.804471 0.0804471 1.937 20 15 19
-0.772837 0.0799487 1.925 14 12 13
-0.750839 0.0804471 1.937 22 17 23
-0.837655 0.0930727 2.241 84 60 60
-0.80663 0.0930727 2.241 99 81 59
-0.775606 0.0930727 2.241 114 95 80
-0.75023 0.0937788 2.258 119 96 82
-0.713558 0.0930727 2.241 119 96 78
-0.677356 0.0923667 2.224 118 92 75
-0.656451 0.0937788 2.258 114 92 79
-0.620485 0.0930727 2.241 113 85 71
-0.589461 0.0930727 2.241 110 83 72
-0.562673 0.0937788 2.258 66 49 39
-0.46175 0.0814854 1.962 38 27 23
-0.437468 0.0820253 1.975 37 28 21
-0.412826 0.0825652 1.988 30 22 20
-0.385304 0.0825652 1.988 33 26 18
-0.355443 0.0820253 1.975 32 25 17
-0.328101 0.0820253 1.975 35 24 18
-0.300759 0.0820253 1.975 37 28 31
-0.273418 0.0820253 1.975 32 20 20
-0.246076 0.0820253 1.975 25 19 19
-0.218734 0.0820253 1.975 33 25 22
-0.192652 0.0825652 1.988 25 19 19
-0.16513 0.0825652 1.988 32 24 22
-0.136709 0.0820253 1.975 31 24 18
-0.109367 0.0820253 1.975 29 21 19
-0.0825652 0.0825652 1.988 33 26 20
-0.0546835 0.0820253 1.975 31 23 20
-0.0273418 0.0820253 1.975 29 21 19
0 0.080987 1.95 22 19 14
0.0271618 0.0814854 1.962 26 22 13
0.0543236 0.0814854 1.962 25 20 17
0.0820253 0.0820253 1.975 29 23 11
0.108647 0.0814854 1.962 36 24 26
0.156298 0.0937788 2.258 54 39 34
0.186145 0.0930727 2.241 67 49 35
0.218817 0.0937788 2.258 60 40 33
0.250077 0.0937788 2.258 65 47 37
0.279218 0.0930727 2.241 64 47 39
0.310242 0.0930727 2.241 70 49 44
0.343856 0.0937788 2.258 70 56 47
0.372291 0.0930727 2.241 68 48 37
0.406375 0.0937788 2.258 65 46 39
0.437634 0.0937788 2.258 70 53 45
0.468894 0.0937788 2.258 78 59 52
0.500153 0.0937788 2.258 84 67 59
0.527412 0.0930727 2.241 82 63 56
0.558436 0.0930727 2.241 76 56 45
0.589461 0.0930727 2.241 75 56 50
0.625192 0.0937788 2.258 69 51 41
0.651509 0.0930727 2.241 71 53 49
0.682533 0.0930727 2.241 60 46 35
0.61294 0.0799487 1.925 22 23 17
0.63959 0.0799487 1.925 27 21 21
0.64132 0.0769584 1.853 32 24 21
0.639257 0.0737605 1.776 33 25 23
0.652257 0.072473 1.745 32 29 24
0.612455 0.0656202 1.58 42 37 41
0.627504 0.0649142 1.563 40 34 38
0.639174 0.0639174 1.539 49 42 32
0.644172 0.0623392 1.501 43 33 31
0.645459 0.0605118 1.457 47 36 32
0.652838 0.0593489 1.429 76 70 58
0.614255 0.054199 1.305 84 73 69
0.621177 0.0532438 1.282 109 93 96
0.628459 0.0523716 1.261 89 71 69
0.635159 0.0514994 1.24 89 80 71
0.641805 0.0506688 1.22 99 85 85
0.653295 0.0502535 1.21 80 73 67
-0.826538 0.0972398 1.756 13 12 10
-0.806797 0.0977935 1.766 12 11 7
-0.801397 0.100175 1.809 20 14 14
-0.800387 0.103276 1.865 18 17 13
-0.789104 0.105214 1.9 15 15 17
-0.772837 0.106598 1.925 13 16 7
-0.741149 0.105878 1.912 14 9 5
-0.733368 0.108647 1.962 57 48 41
-0.783234 0.120498 2.176 92 73 69
-0.758647 0.121384 2.192 107 84 76
-0.728301 0.121384 2.192 114 89 85
-0.697955 0.121384 2.192 121 96 89
-0.66761 0.121384 2.192 119 97 84
-0.637264 0.121384 2.192 114 94 87
-0.606918 0.121384 2.192 109 86 72
-0.580781 0.12227 2.208 105 77 66
-0.546226 0.121384 2.192 79 60 54
-0.467869 0.110087 1.988 32 28 29
-0.443449 0.110862 2.002 32 23 18
-0.415733 0.110862 2.002 30 24 12
-0.385304 0.110087 1.988 34 24 22
-0.357783 0.110087 1.988 35 25 26
-0.330261 0.110087 1.988 33 23 24
-0.304871 0.110862 2.002 31 21 19
-0.275217 0.110087 1.988 32 23 16
-0.247696 0.110087 1.988 37 28 23
-0.220174 0.110087 1.988 30 20 21
-0.194009 0.110862 2.002 34 25 26
-0.166293 0.110862 2.002 30 21 14
-0.138578 0.110862 2.002 28 20 17
-0.110087 0.110087 1.988 27 19 17
-0.0825652 0.110087 1.988 30 21 16
-0.0550435 0.110087 1.988 30 23 17
-0.0275217 0.110087 1.988 30 25 21
0 0.110087 1.988 29 24 21
0.0275217 0.110087 1.988 33 22 20
0.0550435 0.110087 1.988 26 20 20
0.0820253 0.109367 1.975 27 24 17
0.108647 0.108647 1.962 39 32 24
0.152837 0.12227 2.208 60 46 37
0.182075 0.121384 2.192 57 40 30
0.212421 0.121384 2.192 66 53 37
0.242767 0.121384 2.192 70 49 46
0.275107 0.12227 2.208 66 50 37
0.305674 0.12227 2.208 75 59 43
0.336241 0.12227 2.208 73 54 48
0.366809 0.12227 2.208 75 58 40
0.394497 0.121384 2.192 73 53 44
0.427944 0.12227 2.208 79 58 57
0.458511 0.12227 2.208 87 62 55
0.489078 0.12227 2.208 89 68 49
0.519646 0.12227 2.208 93 71 58
0.550213 0.12227 2.208 86 64 53
0.576572 0.121384 2.192 88 63 56
0.615778 0.123156 2.224 76 59 49
0.641915 0.12227 2.208 71 54 44
0.672483 0.12227 2.208 57 43 34
0.68299 0.118781 2.145 23 15 13
0.643577 0.107263 1.937 17 13 12
0.64132 0.102611 1.853 32 26 28
0.647176 0.0995655 1.798 35 28 22
0.644781 0.0955231 1.725 32 28 29
0.602765 0.0861092 1.555 42 34 31
0.62108 0.0856662 1.547 56 49 43
0.632944 0.0843926 1.524 49 40 33
0.640739 0.0826759 1.493 49 39 38
0.645459 0.0806824 1.457 44 41 26
0.64964 0.0787443 1.422 39 34 30
0.653793 0.0769169 1.389 64 52 38
0.616332 0.0704379 1.272 77 62 59
0.622977 0.0692196 1.25 91 83 64
0.630037 0.0681121 1.23 98 92 80
0.639174 0.0672815 1.215 86 77 68
0.647896 0.0664509 1.2 96 84 68
-0.871198 0.124457 1.798 16 12 11
-0.841129 0.123696 1.787 12 11 9
-0.821416 0.124457 1.798 13 11 14
-0.801397 0.125218 1.809 7 7 9
-0.795237 0.128264 1.853 16 15 13
-0.78412 0.130687 1.888 16 13 6
-0.767618 0.132348 1.912 7 5 16
-0.755879 0.134978 1.95 20 20 12
-0.74832 0.138578 2.002 42 34 23
-0.766677 0.147438 2.13 87 64 56
-0.742381 0.148476 2.145 89 72 64
-0.712686 0.148476 2.145 95 71 61
-0.68299 0.148476 2.145 102 79 73
-0.653295 0.148476 2.145 111 87 77
-0.6236 0.148476 2.145 110 85 78
-0.593905 0.148476 2.145 110 92 68
-0.568155 0.149514 2.16 114 94 85
-0.534514 0.148476 2.145 95 78 70
-0.471164 0.138578 2.002 35 32 23
-0.449429 0.140447 2.029 31 19 21
-0.418433 0.139478 2.015 32 22 20
-0.390537 0.139478 2.015 36 30 30
-0.365161 0.140447 2.029 32 24 22
-0.334746 0.139478 2.015 35 26 27
-0.306851 0.139478 2.015 36 28 25
-0.278955 0.139478 2.015 29 22 14
-0.24944 0.138578 2.002 34 27 19
-0.221724 0.138578 2.002 32 21 19
-0.195269 0.139478 2.015 31 21 19
-0.167373 0.139478 2.015 34 24 25
-0.139478 0.139478 2.015 28 19 20
-0.110862 0.138578 2.002 31 23 20
-0.0831466 0.138578 2.002 28 24 13
-0.0554311 0.138578 2.002 26 17 18
-0.0277155 0.138578 2.002 22 18 7
0 0.137609 1.988 22 17 14
0.0277155 0.138578 2.002 28 23 19
0.0554311 0.138578 2.002 28 18 16
0.0831466 0.138578 2.002 25 20 17
0.120498 0.150622 2.176 38 28 27
0.149514 0.149514 2.16 60 41 37
0.179417 0.149514 2.16 63 46 39
0.210871 0.150622 2.176 70 52 48
0.240995 0.150622 2.176 66 49 41
0.269126 0.149514 2.16 70 48 35
0.299029 0.149514 2.16 69 49 40
0.331368 0.150622 2.176 74 51 45
0.361493 0.150622 2.176 77 59 49
0.391617 0.150622 2.176 87 67 58
0.421741 0.150622 2.176 86 65 60
0.448543 0.149514 2.16 89 69 62
0.478446 0.149514 2.16 91 72 65
0.508349 0.149514 2.16 87 70 52
0.534514 0.148476 2.145 88 71 61
0.564209 0.148476 2.145 81 62 55
0.598058 0.149514 2.16 83 60 54
0.632612 0.150622 2.176 73 56 40
0.653295 0.148476 2.145 46 37 22
0.687766 0.149514 2.16 36 36 26
0.712686 0.148476 2.145 23 15 13
0.64132 0.128264 1.853 25 23 26
0.647176 0.124457 1.798 39 28 34
0.641043 0.118712 1.715 29 28 23
0.657421 0.117397 1.696 33 27 29
0.617868 0.106529 1.539 44 39 35
0.632944 0.105491 1.524 48 44 33
0.637734 0.10286 1.486 50 42 40
0.645459 0.100853 1.457 55 36 42
0.646899 0.098015 1.416 48 41 31
0.648145 0.0953155 1.377 40 37 32
0.611002 0.087286 1.261 88 76 64
0.617993 0.0858324 1.24 97 89 70
0.627476 0.0847941 1.225 113 100 83
0.631283 0.0830636 1.2 164 147 131
0.645736 0.0827867 1.196 162 144 124
-0.835952 0.147521 1.776 17 17 15
-0.826441 0.150262 1.809 20 14 14
-0.816017 0.153003 1.842 12 14 13
-0.805108 0.155827 1.876 14 13 11
-0.794088 0.158818 1.912 17 16 12
-0.777655 0.160894 1.937 11 12 7
-0.76053 0.162971 1.962 19 15 12
-0.753179 0.167373 2.015 39 28 32
-0.750479 0.173188 2.085 77 62 41
-0.731998 0.175679 2.115 101 73 61
-0.697734 0.174434 2.1 110 78 65
-0.668662 0.174434 2.1 105 83 72
-0.639589 0.174434 2.1 116 91 69
-0.606156 0.173188 2.085 110 84 67
-0.581445 0.174434 2.1 116 87 83
-0.552373 0.174434 2.1 115 87 66
-0.527038 0.175679 2.115 105 81 77
-0.480814 0.169699 2.043 54 39 34
-0.45253 0.169699 2.043 36 25 31
-0.42134 0.168536 2.029 34 23 21
-0.393251 0.168536 2.029 34 25 28
-0.365161 0.168536 2.029 39 29 27
-0.337072 0.168536 2.029 38 24 23
-0.308983 0.168536 2.029 35 27 25
-0.280893 0.168536 2.029 27 18 19
-0.252804 0.168536 2.029 36 28 26
-0.224715 0.168536 2.029 36 26 25
-0.197982 0.169699 2.043 35 24 22
-0.169699 0.169699 2.043 35 23 25
-0.140447 0.168536 2.029 32 28 19
-0.112357 0.168536 2.029 26 21 15
-0.084268 0.168536 2.029 30 22 20
-0.055791 0.167373 2.015 36 25 19
-0.0278955 0.167373 2.015 30 18 22
0 0.167373 2.015 29 24 21
0.0278955 0.167373 2.015 31 25 27
0.0554311 0.166293 2.002 29 24 18
0.0836866 0.167373 2.015 25 19 21
0.11712 0.175679 2.115 40 26 23
0.147438 0.176925 2.13 65 48 41
0.176925 0.176925 2.13 66 47 32
0.206413 0.176925 2.13 77 57 50
0.235901 0.176925 2.13 70 53 45
0.263519 0.175679 2.115 77 54 48
0.288646 0.173188 2.085 73 53 44
0.311115 0.169699 2.043 46 36 37
0.337072 0.168536 2.029 70 52 52
0.37524 0.173188 2.085 46 36 27
0.412826 0.176925 2.13 92 70 57
0.442314 0.176925 2.13 93 71 58
0.471801 0.176925 2.13 90 70 61
0.497759 0.175679 2.115 94 72 58
0.527038 0.175679 2.115 98 79 65
0.548427 0.173188 2.085 82 58 48
0.593905 0.178171 2.145 80 63 55
0.619239 0.176925 2.13 77 59 49
0.644158 0.175679 2.115 79 63 63
0.673438 0.175679 2.115 49 44 38
0.702718 0.175679 2.115 49 35 34
0.633706 0.152089 1.831 19 15 12
0.647176 0.149348 1.798 30 25 29
0.648519 0.144115 1.735 32 28 25
0.646567 0.13855 1.668 32 31 27
0.614657 0.12717 1.531 42 32 30
0.629622 0.125924 1.516 55 41 40
0.63473 0.122851 1.479 45 36 39
0.642358 0.120442 1.45 46 41 38
0.64964 0.118116 1.422 47 40 30
0.653793 0.115375 1.389 54 41 35
0.652188 0.111804 1.346 42 29 21
0.615501 0.102584 1.235 129 113 100
0.622354 0.100922 1.215 163 146 118
0.631283 0.0996763 1.2 165 138 121
0.645736 0.099344 1.196 157 143 114
-0.831245 0.171139 1.766 12 12 12
-0.831466 0.176372 1.82 15 16 18
-0.82089 0.17957 1.853 10 12 9
-0.810257 0.182961 1.888 18 14 13
-0.794088 0.185287 1.912 15 15 17
-0.792911 0.191392 1.975 10 10 10
-0.781075 0.195269 2.015 8 9 11
-0.758412 0.196625 2.029 33 22 26
-0.74544 0.200695 2.071 96 78 66
-0.721615 0.202052 2.085 114 89 84
-0.688099 0.200695 2.071 116 91 69
-0.659428 0.200695 2.071 117 91 76
-0.630757 0.200695 2.071 112 86 73
-0.602086 0.200695 2.071 118 92 77
-0.573416 0.200695 2.071 117 90 71
-0.544745 0.200695 2.071 122 91 86
-0.516074 0.200695 2.071 117 94 76
-0.487403 0.200695 2.071 96 77 62
-0.461834 0.202052 2.085 31 27 18
-0.430062 0.200695 2.071 30 22 20
-0.398677 0.199339 2.057 20 19 14
-0.37524 0.202052 2.085 23 16 10
-0.346375 0.202052 2.085 21 20 16
-0.315379 0.200695 2.071 27 22 19
-0.286708 0.200695 2.071 28 18 17
-0.258037 0.200695 2.071 24 16 13
-0.227816 0.199339 2.057 31 22 23
-0.200695 0.200695 2.071 25 17 15
-0.173188 0.202052 2.085 24 14 15
-0.143354 0.200695 2.071 26 23 18
-0.115458 0.202052 2.085 26 15 19
-0.0860123 0.200695 2.071 26 22 19
-0.0569539 0.199339 2.057 24 16 13
-0.028477 0.199339 2.057 23 18 15
0 0.199339 2.057 21 20 15
0.0282831 0.197982 2.043 24 20 17
0.0573416 0.200695 2.071 24 19 23
0.0865938 0.202052 2.085 36 27 20
0.116289 0.203506 2.1 55 38 31
0.145361 0.203506 2.1 64 45 41
0.174434 0.203506 2.1 69 53 38
0.202052 0.202052 2.085 81 64 56
0.229366 0.200695 2.071 61 42 28
0.256293 0.199339 2.057 108 84 40
0.277155 0.194009 2.002 52 42 32
0.306851 0.195269 2.015 39 39 29
0.332587 0.194009 2.002 36 36 28
0.370201 0.199339 2.057 12 13 5
0.401391 0.200695 2.071 65 50 45
0.432969 0.202052 2.085 90 70 61
0.458732 0.200695 2.071 90 71 65
0.487403 0.200695 2.071 91 71 62
0.516074 0.200695 2.071 98 74 70
0.548427 0.202052 2.085 92 69 63
0.577292 0.202052 2.085 86 72 61
0.606156 0.202052 2.085 83 66 50
0.635021 0.202052 2.085 84 67 59
0.663886 0.202052 2.085 68 48 39
0.683447 0.199339 2.057 61 43 39
0.711924 0.199339 2.057 27 18 19
0.643217 0.173174 1.787 34 25 20
0.652257 0.169104 1.745 32 27 33
0.650056 0.162514 1.677 26 23 18
0.651592 0.157281 1.623 38 33 30
0.62007 0.144683 1.493 42 36 36
0.631297 0.142551 1.471 47 43 40
0.642358 0.140516 1.45 46 37 40
0.64964 0.137802 1.422 45 35 36
0.650969 0.134023 1.383 49 42 36
0.652188 0.130437 1.346 41 33 30
0.650388 0.126464 1.305 53 35 31
0.622354 0.117743 1.215 116 102 76
0.631283 0.116289 1.2 138 130 107
0.643037 0.115417 1.191 150 128 105
-0.831466 0.201568 1.82 13 14 18
-0.826206 0.206551 1.865 16 14 15
-0.810257 0.209099 1.888 8 3 0
-0.794088 0.211757 1.912 12 12 14
-0.787692 0.217294 1.962 11 9 10
-0.781075 0.223164 2.015 32 24 21
-0.74832 0.221724 2.002 103 84 78
-0.725284 0.223164 2.015 98 78 67
-0.702233 0.224715 2.029 117 89 77
-0.674144 0.224715 2.029 116 89 80
-0.646055 0.224715 2.029 114 90 78
-0.617965 0.224715 2.029 116 88 77
-0.589876 0.224715 2.029 122 93 85
-0.565663 0.226265 2.043 120 97 81
-0.533697 0.224715 2.029 122 96 71
-0.505608 0.224715 2.029 120 95 75
-0.477519 0.224715 2.029 122 96 79
-0.45253 0.226265 2.043 112 90 67
-0.424247 0.226265 2.043 124 94 84
-0.395964 0.226265 2.043 114 91 83
-0.367681 0.226265 2.043 112 90 79
-0.341724 0.227816 2.057 111 87 75
-0.311115 0.226265 2.043 110 87 69
-0.28477 0.227816 2.057 112 86 73
-0.254548 0.226265 2.043 111 88 72
-0.226265 0.226265 2.043 101 79 68
-0.199339 0.227816 2.057 105 83 70
-0.169699 0.226265 2.043 102 79 71
-0.142385 0.227816 2.057 110 83 76
-0.113908 0.227816 2.057 99 80 73
-0.0854309 0.227816 2.057 94 68 51
-0.0569539 0.227816 2.057 94 74 65
-0.028477 0.227816 2.057 97 78 71
0 0.227816 2.057 99 76 68
0.0282831 0.226265 2.043 90 70 61
0.0569539 0.227816 2.057 85 67 57
0.0854309 0.227816 2.057 93 66 59
0.113133 0.226265 2.043 98 73 69
0.142385 0.227816 2.057 99 76 68
0.169699 0.226265 2.043 111 84 75
0.197982 0.226265 2.043 106 76 68
0.226265 0.226265 2.043 73 52 49
0.25106 0.223164 2.015 34 25 20
0.277155 0.221724 2.002 30 24 24
0.308983 0.224715 2.029 40 29 23
0.330261 0.220174 1.988 37 26 20
0.365161 0.224715 2.029 66 50 34
0.393251 0.224715 2.029 108 79 61
0.418433 0.223164 2.015 87 59 45
0.446328 0.223164 2.015 77 63 52
0.480814 0.226265 2.043 92 72 65
0.505608 0.224715 2.029 101 71 63
0.53738 0.226265 2.043 85 66 52
0.565663 0.226265 2.043 72 53 47
0.593946 0.226265 2.043 86 65 48
0.617965 0.224715 2.029 72 58 47
0.650512 0.226265 2.043 75 52 46
0.678796 0.226265 2.043 59 45 36
0.702233 0.224715 2.029 49 37 37
0.652257 0.193261 1.745 29 25 24
0.653544 0.186727 1.686 35 24 28
0.651592 0.17975 1.623 32 27 23
0.617162 0.164577 1.486 45 30 33
0.628293 0.16214 1.464 51 40 36
0.636156 0.159039 1.436 58 50 48
0.643701 0.156049 1.409 48 36 36
0.650969 0.153169 1.383 49 39 47
0.655095 0.149736 1.352 49 41 38
0.65288 0.145084 1.31 40 38 26
0.654112 0.14143 1.277 56 54 39
0.629179 0.132459 1.196 139 124 95
0.637638 0.130797 1.181 147 132 103
-1.03215 0.244456 1.962 28 23 17
-0.99884 0.242961 1.95 21 12 7
-0.920621 0.236731 1.9 21 15 15
-0.899966 0.238226 1.912 24 17 11
-0.815407 0.236731 1.9 15 13 18
-0.80987 0.242961 1.95 24 15 16
-0.792911 0.246076 1.975 86 65 60
-0.765569 0.246076 1.975 103 80 72
-0.743087 0.247696 1.988 111 89 76
-0.720604 0.24944 2.002 118 90 78
-0.692889 0.24944 2.002 114 94 87
-0.660522 0.247696 1.988 128 100 89
-0.633 0.247696 1.988 123 97 84
-0.609742 0.24944 2.002 120 94 81
-0.582026 0.24944 2.002 120 93 76
-0.550435 0.247696 1.988 127 100 83
-0.526595 0.24944 2.002 120 93 82
-0.495391 0.247696 1.988 126 100 87
-0.471164 0.24944 2.002 123 97 84
-0.443449 0.24944 2.002 124 96 82
-0.418433 0.25106 2.015 116 93 79
-0.390537 0.25106 2.015 120 90 82
-0.365161 0.252804 2.029 117 94 80
-0.337072 0.252804 2.029 125 96 78
-0.306851 0.25106 2.015 123 95 83
-0.278955 0.25106 2.015 129 100 92
-0.24944 0.24944 2.002 117 91 76
-0.223164 0.25106 2.015 127 100 89
-0.194009 0.24944 2.002 116 93 77
-0.167373 0.25106 2.015 123 90 81
-0.139478 0.25106 2.015 114 93 76
-0.111582 0.25106 2.015 114 91 73
-0.0836866 0.25106 2.015 110 85 78
-0.0554311 0.24944 2.002 113 86 77
-0.0277155 0.24944 2.002 113 89 79
0 0.24944 2.002 109 81 78
0.0277155 0.24944 2.002 117 91 74
0.055791 0.25106 2.015 114 91 75
0.0836866 0.25106 2.015 114 87 76
0.110862 0.24944 2.002 111 89 76
0.138578 0.24944 2.002 113 85 71
0.167373 0.25106 2.015 106 78 66
0.195269 0.25106 2.015 106 79 72
0.221724 0.24944 2.002 102 80 69
0.24944 0.24944 2.002 84 66 52
0.277155 0.24944 2.002 60 52 41
0.304871 0.24944 2.002 35 24 20
0.332587 0.24944 2.002 31 26 22
0.360302 0.24944 2.002 64 50 39
0.388018 0.24944 2.002 114 84 56
0.410126 0.246076 1.975 66 46 22
0.437468 0.246076 1.975 79 56 25
0.46481 0.246076 1.975 75 57 43
0.49888 0.24944 2.002 90 71 57
0.526595 0.24944 2.002 92 67 62
0.55791 0.25106 2.015 87 67 60
0.582026 0.24944 2.002 84 64 53
0.609742 0.24944 2.002 86 70 47
0.633 0.247696 1.988 75 58 48
0.660522 0.247696 1.988 74 53 52
0.688043 0.247696 1.988 54 39 36
0.715565 0.247696 1.988 41 31 29
0.641043 0.213681 1.715 23 19 16
0.650056 0.208946 1.677 39 31 28
0.654804 0.203215 1.631 34 29 26
0.663263 0.198979 1.597 34 26 23
0.625289 0.181535 1.457 48 39 30
0.633055 0.178047 1.429 50 41 42
0.643701 0.175555 1.409 53 44 39
0.648145 0.171568 1.377 38 38 26
0.655095 0.168453 1.352 50 36 49
0.65587 0.163968 1.316 49 39 30
0.656673 0.159731 1.282 48 38 39
0.654956 0.155121 1.245 65 53 41
0.637638 0.147147 1.181 125 109 93
-1.03231 0.264696 1.912 76 64 52
-1.019 0.268157 1.937 43 27 28
-0.992181 0.268157 1.937 91 70 65
-0.965365 0.268157 1.937 56 47 50
-0.926436 0.264696 1.912 25 21 12
-0.894318 0.263035 1.9 24 19 25
-0.852025 0.258189 1.865 18 18 16
-0.826206 0.258189 1.865 16 15 11
-0.820557 0.264696 1.912 27 22 18
-0.799487 0.266496 1.925 100 73 66
-0.782874 0.269957 1.95 104 82 71
-0.755879 0.269957 1.95 112 86 85
-0.728883 0.269957 1.95 112 86 73
-0.701887 0.269957 1.95 119 93 78
-0.679045 0.271618 1.962 127 97 99
-0.651883 0.271618 1.962 121 98 84
-0.624721 0.271618 1.962 119 98 81
-0.597559 0.271618 1.962 120 98 77
-0.570398 0.271618 1.962 128 100 89
-0.543236 0.271618 1.962 120 96 86
-0.516074 0.271618 1.962 122 98 88
-0.488912 0.271618 1.962 123 92 87
-0.46175 0.271618 1.962 125 101 99
-0.437468 0.273418 1.975 125 97 83
-0.410126 0.273418 1.975 119 96 80
-0.382785 0.273418 1.975 129 103 90
-0.355443 0.273418 1.975 130 100 89
-0.328101 0.273418 1.975 126 97 83
-0.302739 0.275217 1.988 128 97 94
-0.275217 0.275217 1.988 129 97 82
-0.246076 0.273418 1.975 126 100 87
-0.218734 0.273418 1.975 119 95 85
-0.192652 0.275217 1.988 118 95 81
-0.164051 0.273418 1.975 124 98 85
-0.136709 0.273418 1.975 117 90 79
-0.110087 0.275217 1.988 114 89 84
-0.0820253 0.273418 1.975 121 92 84
-0.0546835 0.273418 1.975 125 97 86
-0.0273418 0.273418 1.975 124 94 86
0 0.273418 1.975 118 89 81
0.0273418 0.273418 1.975 107 85 72
0.0546835 0.273418 1.975 115 93 82
0.0825652 0.275217 1.988 116 92 80
0.109367 0.273418 1.975 115 91 79
0.136709 0.273418 1.975 100 78 65
0.164051 0.273418 1.975 107 81 68
0.191392 0.273418 1.975 102 79 71
0.218734 0.273418 1.975 106 83 69
0.244456 0.271618 1.962 114 85 77
0.271618 0.271618 1.962 97 79 69
0.300759 0.273418 1.975 102 77 73
0.328101 0.273418 1.975 105 83 70
0.355443 0.273418 1.975 95 75 66
0.382785 0.273418 1.975 48 33 28
0.407427 0.271618 1.962 42 31 27
0.434589 0.271618 1.962 45 35 25
0.46175 0.271618 1.962 38 24 24
0.492152 0.273418 1.975 90 70 59
0.516074 0.271618 1.962 89 67 56
0.546835 0.273418 1.975 93 71 58
0.577956 0.275217 1.988 89 72 62
0.601519 0.273418 1.975 87 68 61
0.62886 0.273418 1.975 86 67 61
0.651883 0.271618 1.962 83 58 53
0.679045 0.271618 1.962 71 54 47
0.706207 0.271618 1.962 63 49 40
0.650056 0.232163 1.677 36 30 30
0.647979 0.223441 1.614 31 27 24
0.663263 0.221088 1.597 34 25 26
0.622285 0.200737 1.45 50 47 42
0.629954 0.196861 1.422 55 43 43
0.637762 0.193261 1.396 54 43 47
0.64485 0.189662 1.37 47 35 35
0.652188 0.186339 1.346 56 47 42
0.65587 0.182186 1.316 48 42 46
0.656673 0.177479 1.282 46 39 46
0.652326 0.171665 1.24 40 31 26
0.658694 0.168896 1.22 87 70 60
-1.02584 0.289338 1.9 96 77 71
-0.993219 0.287511 1.888 33 25 22
-0.973228 0.289338 1.9 92 73 67
