ply
format ascii 1.0
element vertex 1373
property float x
property float y
property float z
property uchar red
property uchar green
property uchar blue
end_header
-0.0998009 -0.0665339 2.403 172 153 147
-0.0665339 -0.0665339 2.403 169 149 142
-0.033267 -0.0665339 2.403 177 155 144
0 -0.0681675 2.462 139 113 100
0.0340838 -0.0681675 2.462 113 82 77
0.0687213 -0.0687213 2.482 138 112 87
0.103082 -0.0687213 2.482 144 117 90
0.137443 -0.0687213 2.482 143 118 98
0.173257 -0.0693027 2.503 142 118 92
0.209652 -0.0698842 2.524 143 116 99
0.24663 -0.0704656 2.545 146 123 91
0.279537 -0.0698842 2.524 144 116 92
0.317095 -0.0704656 2.545 139 110 94
0.352328 -0.0704656 2.545 138 109 93
0.390911 -0.0710747 2.567 135 107 85
0.426448 -0.0710747 2.567 138 113 91
0.465945 -0.0716839 2.589 133 106 87
0.501787 -0.0716839 2.589 133 112 85
0.537629 -0.0716839 2.589 136 109 88
0.573471 -0.0716839 2.589 135 112 94
0.609313 -0.0716839 2.589 129 107 84
0.650886 -0.0723207 2.612 128 106 83
0.693096 -0.0729575 2.635 131 102 88
0.742588 -0.0742588 2.682 129 103 76
0.77274 -0.0735943 2.658 122 100 77
0.816847 -0.0742588 2.682 126 101 81
0.853977 -0.0742588 2.682 127 103 77
0.891106 -0.0742588 2.682 125 98 81
0.928235 -0.0742588 2.682 125 98 81
0.956726 -0.0735943 2.658 122 104 84
0.967732 -0.0716839 2.589 125 99 82
0.978378 -0.0698842 2.524 128 98 88
1.01332 -0.0698842 2.524 131 103 91
1.01421 -0.0676138 2.442 127 112 79
1.03128 -0.0665339 2.403 119 104 73
1.04771 -0.0654818 2.365 131 102 86
1.0471 -0.0634606 2.292 130 106 80
1.06283 -0.0625192 2.258 125 108 90
1.07761 -0.0615778 2.224 133 105 91
1.08448 -0.0602488 2.176 129 104 84
1.09872 -0.0593905 2.145 137 106 85
1.10475 -0.0581445 2.1 135 110 90
1.12572 -0.0577292 2.085 131 105 82
-1.10304 -0.0282831 2.043 193 176 168
-1.07476 -0.0282831 2.043 173 156 149
-1.05365 -0.028477 2.057 194 180 167
-1.03215 -0.0286708 2.071 192 178 175
-1.01026 -0.0288646 2.085 171 157 148
-0.995517 -0.0292799 2.115 192 178 169
-0.966237 -0.0292799 2.115 193 175 171
-0.943602 -0.0294876 2.13 171 157 148
-0.907677 -0.0292799 2.115 192 176 163
-0.890857 -0.0296952 2.145 192 173 166
-0.861162 -0.0296952 2.145 177 156 153
-0.831466 -0.0296952 2.145 196 171 167
-0.807378 -0.0299029 2.16 184 163 160
-0.783234 -0.0301244 2.176 184 165 161
-0.758647 -0.0303459 2.192 191 173 163
-0.728301 -0.0303459 2.192 191 172 166
-0.70305 -0.0305674 2.208 192 168 164
-0.672483 -0.0305674 2.208 188 168 159
-0.641915 -0.0305674 2.208 158 142 127
-0.620485 -0.0310242 2.241 187 168 161
-0.589461 -0.0310242 2.241 179 160 154
-0.562673 -0.0312596 2.258 181 160 155
-0.531413 -0.0312596 2.258 182 166 153
-0.507685 -0.0317303 2.292 177 158 144
-0.475954 -0.0317303 2.292 186 165 162
-0.444224 -0.0317303 2.292 160 142 132
-0.412494 -0.0317303 2.292 184 165 151
-0.383754 -0.0319795 2.31 165 145 134
-0.354515 -0.0322287 2.328 178 153 149
-0.322287 -0.0322287 2.328 178 157 154
-0.292301 -0.0324779 2.346 177 158 152
-0.259823 -0.0324779 2.346 153 130 122
-0.229186 -0.0327409 2.365 172 155 147
-0.198024 -0.0330039 2.384 149 129 128
-0.16502 -0.0330039 2.384 173 152 151
-0.133068 -0.033267 2.403 170 148 137
-0.0998009 -0.033267 2.403 173 154 150
-0.0665339 -0.033267 2.403 170 148 137
-0.033267 -0.033267 2.403 174 155 138
0 -0.0346514 2.503 135 113 92
0.0343606 -0.0343606 2.482 115 94 73
0.0687213 -0.0343606 2.482 143 116 86
0.103082 -0.0343606 2.482 149 120 104
0.138605 -0.0346514 2.503 138 119 87
0.17471 -0.0349421 2.524 143 116 87
0.209652 -0.0349421 2.524 143 118 87
0.24663 -0.0352328 2.545 142 121 102
0.281862 -0.0352328 2.545 139 119 92
0.317095 -0.0352328 2.545 143 115 94
0.352328 -0.0352328 2.545 137 109 85
0.394261 -0.0358419 2.589 140 114 97
0.430103 -0.0358419 2.589 131 110 93
0.465945 -0.0358419 2.589 133 106 77
0.501787 -0.0358419 2.589 141 109 88
0.537629 -0.0358419 2.589 133 105 84
0.573471 -0.0358419 2.589 130 102 80
0.614726 -0.0361603 2.612 139 113 86
0.656618 -0.0364788 2.635 135 106 88
0.693096 -0.0364788 2.635 135 107 83
0.735943 -0.0367972 2.658 124 104 71
0.77274 -0.0367972 2.658 121 96 66
0.816847 -0.0371294 2.682 121 99 75
0.853977 -0.0371294 2.682 126 105 76
0.891106 -0.0371294 2.682 119 100 70
0.928235 -0.0371294 2.682 123 101 77
0.956726 -0.0367972 2.658 116 96 69
0.967732 -0.0358419 2.589 120 102 82
0.978378 -0.0349421 2.524 125 101 77
1.00489 -0.0346514 2.503 123 101 88
1.02251 -0.0340838 2.462 117 98 83
1.03128 -0.033267 2.403 126 105 84
1.04771 -0.0327409 2.365 132 109 95
1.05532 -0.0319795 2.31 128 106 83
1.06283 -0.0312596 2.258 132 105 98
1.07761 -0.0307889 2.224 135 109 94
1.08448 -0.0301244 2.176 126 101 94
1.09872 -0.0296952 2.145 129 106 90
1.11264 -0.0292799 2.115 134 107 98
1.12572 -0.0288646 2.085 132 105 98
-1.1106 0 2.057 185 167 165
-1.08212 0 2.057 162 153 144
-1.05365 0 2.057 193 173 175
-1.03215 0 2.071 186 174 160
-1.01753 0 2.1 165 151 140
-0.995517 0 2.115 184 172 156
-0.966237 0 2.115 189 171 171
-0.936957 0 2.115 163 150 144
-0.914115 0 2.13 186 170 173
-0.890857 0 2.145 187 173 170
-0.861162 0 2.145 167 148 144
-0.831466 0 2.145 188 175 166
-0.807378 0 2.16 185 171 160
-0.783234 0 2.176 185 167 157
-0.758647 0 2.192 184 167 159
-0.733618 0 2.208 190 169 164
-0.70305 0 2.208 190 166 162
-0.677356 0 2.224 194 174 165
-0.646567 0 2.224 161 142 128
-0.620485 0 2.241 183 169 158
-0.593932 0 2.258 184 162 151
-0.562673 0 2.258 184 164 155
-0.535414 0 2.275 183 166 150
-0.507685 0 2.292 176 156 149
-0.475954 0 2.292 177 156 155
-0.447713 0 2.31 157 137 138
-0.418973 0 2.328 176 158 144
-0.386744 0 2.328 163 142 137
-0.357256 0 2.346 173 154 139
-0.322287 0 2.328 173 156 149
-0.292301 0 2.346 180 156 152
-0.259823 0 2.346 149 122 115
-0.231027 0 2.384 176 154 143
-0.198024 0 2.384 148 129 115
-0.16502 0 2.384 172 151 146
-0.133068 0 2.403 167 147 136
-0.0998009 0 2.403 172 155 148
-0.06706 0 2.422 167 148 134
-0.03353 0 2.422 171 148 140
0 0 2.503 144 116 94
0.0343606 0 2.482 116 97 82
0.0693027 0 2.503 143 111 98
0.103954 0 2.503 147 121 94
0.138605 0 2.503 144 114 88
0.17471 0 2.524 142 114 100
0.209652 0 2.524 143 116 86
0.24663 0 2.545 136 113 81
0.281862 0 2.545 138 114 90
0.319836 0 2.567 132 107 85
0.355374 0 2.567 143 117 90
0.394261 0 2.589 138 114 90
0.430103 0 2.589 136 107 91
0.465945 0 2.589 141 110 90
0.501787 0 2.589 131 103 79
0.537629 0 2.589 132 110 86
0.578565 0 2.612 132 108 82
0.614726 0 2.612 133 102 82
0.656618 0 2.635 133 107 90
0.693096 0 2.635 124 96 82
0.735943 0 2.658 126 100 73
0.779718 0 2.682 124 101 85
0.816847 0 2.682 123 103 78
0.853977 0 2.682 127 103 79
0.891106 0 2.682 129 102 75
0.936542 0 2.706 121 95 80
0.956726 0 2.658 127 100 73
0.976329 0 2.612 127 99 85
0.978378 0 2.524 117 96 79
1.00489 0 2.503 126 99 80
1.02251 0 2.462 124 94 84
1.03128 0 2.403 127 101 86
1.04771 0 2.365 127 103 79
1.05532 0 2.31 129 111 87
1.06283 0 2.258 138 112 95
1.07761 0 2.224 126 103 89
1.08448 0 2.176 128 105 91
1.09872 0 2.145 135 114 85
1.11264 0 2.115 133 111 87
1.12572 0 2.085 129 109 85
-1.1106 0.028477 2.057 183 162 161
-1.08212 0.028477 2.057 178 161 153
-1.06082 0.0286708 2.071 187 174 165
-1.03913 0.0288646 2.085 184 173 167
-1.01026 0.0288646 2.085 178 163 158
-0.995517 0.0292799 2.115 189 170 164
-0.97309 0.0294876 2.13 189 169 168
-0.936957 0.0292799 2.115 159 139 138
-0.914115 0.0294876 2.13 191 175 152
-0.884627 0.0294876 2.13 189 172 162
-0.867184 0.0299029 2.16 162 148 139
-0.837281 0.0299029 2.16 188 168 157
-0.813359 0.0301244 2.176 189 172 164
-0.783234 0.0301244 2.176 182 163 156
-0.764185 0.0305674 2.208 187 167 158
-0.733618 0.0305674 2.208 182 167 162
-0.70305 0.0305674 2.208 182 161 158
-0.677356 0.0307889 2.224 185 169 154
-0.646567 0.0307889 2.224 160 137 131
-0.620485 0.0310242 2.241 184 167 159
-0.589461 0.0310242 2.241 188 167 162
-0.562673 0.0312596 2.258 175 156 150
-0.535414 0.0314949 2.275 181 162 158
-0.511672 0.0319795 2.31 173 151 140
-0.479692 0.0319795 2.31 177 155 144
-0.447713 0.0319795 2.31 151 132 125
-0.418973 0.0322287 2.328 175 156 152
-0.386744 0.0322287 2.328 164 140 136
-0.357256 0.0324779 2.346 172 153 146
-0.324779 0.0324779 2.346 176 156 149
-0.292301 0.0324779 2.346 171 154 147
-0.261927 0.0327409 2.365 144 126 116
-0.231027 0.0330039 2.384 170 150 141
-0.198024 0.0330039 2.384 151 131 120
-0.166335 0.033267 2.403 175 152 146
-0.13412 0.03353 2.422 164 146 134
-0.10059 0.03353 2.422 169 148 143
-0.06706 0.03353 2.422 170 152 132
-0.03353 0.03353 2.422 173 151 137
0 0.0349421 2.524 143 117 94
0.0346514 0.0346514 2.503 125 104 83
0.0693027 0.0346514 2.503 143 115 101
0.104826 0.0349421 2.524 141 121 94
0.138605 0.0346514 2.503 139 115 89
0.17471 0.0349421 2.524 142 117 95
0.211397 0.0352328 2.545 144 115 97
0.24663 0.0352328 2.545 140 116 92
0.281862 0.0352328 2.545 137 110 81
0.319836 0.0355374 2.567 139 114 84
0.355374 0.0355374 2.567 131 114 98
0.394261 0.0358419 2.589 142 106 90
0.430103 0.0358419 2.589 138 117 90
0.465945 0.0358419 2.589 132 110 86
0.501787 0.0358419 2.589 132 110 87
0.542405 0.0361603 2.612 126 103 89
0.58366 0.0364788 2.635 139 104 85
0.620139 0.0364788 2.635 130 104 79
0.662349 0.0367972 2.658 128 104 76
0.699146 0.0367972 2.658 125 103 79
0.742588 0.0371294 2.682 126 105 84
0.779718 0.0371294 2.682 124 98 75
0.816847 0.0371294 2.682 119 96 82
0.853977 0.0371294 2.682 117 96 67
0.89908 0.0374617 2.706 120 99 72
0.928235 0.0371294 2.682 121 99 76
0.956726 0.0367972 2.658 107 90 62
0.967732 0.0358419 2.589 124 102 88
0.986518 0.0352328 2.545 123 100 86
1.00489 0.0346514 2.503 125 98 87
1.02251 0.0340838 2.462 124 101 83
1.03128 0.033267 2.403 124 102 89
1.04771 0.0327409 2.365 125 106 89
1.05532 0.0319795 2.31 128 107 90
1.07083 0.0314949 2.275 132 105 94
1.07761 0.0307889 2.224 130 104 89
1.09245 0.0303459 2.192 130 109 80
1.09872 0.0296952 2.145 134 113 92
1.11264 0.0292799 2.115 134 106 103
1.11816 0.0286708 2.071 144 110 100
-1.1106 0.0569539 2.057 185 171 168
-1.08949 0.0573416 2.071 169 155 154
-1.06082 0.0573416 2.071 186 174 160
-1.03913 0.0577292 2.085 181 171 162
-1.01753 0.0581445 2.1 180 162 152
-1.00258 0.0589751 2.13 185 164 161
-0.97309 0.0589751 2.13 181 164 157
-0.943602 0.0589751 2.13 170 151 147
-0.920552 0.0593905 2.145 188 168 169
-0.890857 0.0593905 2.145 181 171 169
-0.867184 0.0598058 2.16 172 150 139
-0.843483 0.0602488 2.176 187 168 164
-0.813359 0.0602488 2.176 184 170 157
-0.783234 0.0602488 2.176 170 153 137
-0.764185 0.0611348 2.208 183 170 154
-0.733618 0.0611348 2.208 182 161 156
-0.708145 0.0615778 2.224 178 158 149
-0.677356 0.0615778 2.224 179 169 157
-0.651509 0.0620485 2.241 152 141 121
-0.625192 0.0625192 2.258 182 163 157
-0.593932 0.0625192 2.258 179 160 146
-0.566909 0.0629899 2.275 174 156 142
-0.535414 0.0629899 2.275 171 154 146
-0.507685 0.0634606 2.292 173 153 144
-0.479692 0.063959 2.31 177 157 146
-0.447713 0.063959 2.31 156 132 122
-0.415733 0.063959 2.31 172 157 138
-0.386744 0.0644573 2.328 164 145 131
-0.357256 0.0649557 2.346 174 150 148
-0.324779 0.0649557 2.346 167 149 139
-0.292301 0.0649557 2.346 169 153 140
-0.261927 0.0654818 2.365 145 120 115
-0.232869 0.0665339 2.403 168 143 146
-0.198024 0.0660079 2.384 142 124 114
-0.16765 0.06706 2.422 166 147 140
-0.13412 0.06706 2.422 163 141 130
-0.101421 0.0676138 2.442 165 147 135
-0.0676138 0.0676138 2.442 163 141 127
-0.0338069 0.0676138 2.442 169 145 135
0 0.0693027 2.503 135 108 97
0.0343606 0.0687213 2.482 144 118 101
0.0693027 0.0693027 2.503 142 118 92
0.104826 0.0698842 2.524 142 118 90
0.140931 0.0704656 2.545 142 114 92
0.176164 0.0704656 2.545 144 114 88
0.211397 0.0704656 2.545 138 116 93
0.24663 0.0704656 2.545 138 112 85
0.281862 0.0704656 2.545 137 112 92
0.319836 0.0710747 2.567 138 114 90
0.355374 0.0710747 2.567 135 111 83
0.394261 0.0716839 2.589 136 109 88
0.430103 0.0716839 2.589 133 105 81
0.470084 0.0723207 2.612 134 112 89
0.506245 0.0723207 2.612 139 111 90
0.542405 0.0723207 2.612 127 103 79
0.58366 0.0729575 2.635 135 108 99
0.620139 0.0729575 2.635 130 108 85
0.656618 0.0729575 2.635 130 101 95
0.699146 0.0735943 2.658 120 95 65
0.749233 0.0749234 2.706 127 103 77
0.786695 0.0749234 2.706 126 99 69
0.824157 0.0749234 2.706 120 92 71
0.861618 0.0749234 2.706 124 95 79
0.89908 0.0749234 2.706 123 96 89
0.936542 0.0749234 2.706 120 97 83
0.965365 0.0742588 2.682 126 98 77
0.976329 0.0723207 2.612 123 94 76
0.986518 0.0704656 2.545 120 94 81
1.00489 0.0693027 2.503 123 100 82
1.02251 0.0681675 2.462 122 96 79
1.03128 0.0665339 2.403 131 103 91
1.04771 0.0654818 2.365 129 106 88
1.05532 0.063959 2.31 127 99 85
1.07083 0.0629899 2.275 128 105 87
1.07761 0.0615778 2.224 128 108 83
1.08448 0.0602488 2.176 132 110 89
1.09872 0.0593905 2.145 135 107 93
1.10475 0.0581445 2.1 129 107 84
1.11816 0.0573416 2.071 137 105 94
-1.1106 0.0854309 2.057 184 168 153
-1.08949 0.0860123 2.071 175 158 151
-1.06799 0.0865938 2.085 190 170 161
-1.0466 0.0872168 2.1 182 164 164
-1.01753 0.0872168 2.1 183 168 161
-1.00258 0.0884627 2.13 190 169 164
-0.97309 0.0884627 2.13 184 167 157
-0.943602 0.0884627 2.13 169 154 151
-0.920552 0.0890857 2.145 179 165 152
-0.903732 0.0903732 2.176 179 160 153
-0.867184 0.0897087 2.16 172 148 146
-0.843483 0.0903732 2.176 174 164 155
-0.813359 0.0903732 2.176 179 169 159
-0.788993 0.0910377 2.192 163 143 134
-0.764185 0.0917022 2.208 178 163 156
-0.738934 0.0923667 2.224 179 164 161
-0.708145 0.0923667 2.224 171 152 148
-0.677356 0.0923667 2.224 185 162 156
-0.656451 0.0937788 2.258 158 138 131
-0.625192 0.0937788 2.258 169 149 148
-0.598404 0.0944848 2.275 167 150 143
-0.566909 0.0944848 2.275 151 133 131
-0.535414 0.0944848 2.275 152 137 130
-0.515659 0.096686 2.328 142 122 113
-0.48343 0.096686 2.328 142 125 115
-0.45469 0.0974336 2.346 132 109 101
-0.422212 0.0974336 2.346 134 116 102
-0.389734 0.0974336 2.346 132 109 103
-0.36015 0.0982227 2.365 131 109 95
-0.327409 0.0982227 2.365 128 111 101
-0.294668 0.0982227 2.365 127 108 93
-0.266136 0.0998009 2.403 114 94 83
-0.23471 0.10059 2.422 123 101 87
-0.202841 0.101421 2.442 122 97 92
-0.170419 0.102251 2.462 135 108 97
-0.136335 0.102251 2.462 143 115 94
-0.102251 0.102251 2.462 142 116 99
-0.0681675 0.102251 2.462 148 122 109
-0.0340838 0.102251 2.462 151 129 105
0 0.102251 2.462 154 126 105
0.0343606 0.103082 2.482 159 132 111
0.0698842 0.104826 2.524 128 102 77
0.104826 0.104826 2.524 136 107 89
0.140931 0.105698 2.545 142 116 93
0.176164 0.105698 2.545 143 112 92
0.211397 0.105698 2.545 141 110 90
0.24663 0.105698 2.545 143 117 92
0.284299 0.106612 2.567 138 113 91
0.319836 0.106612 2.567 142 114 90
0.355374 0.106612 2.567 137 110 91
0.394261 0.107526 2.589 140 114 101
0.430103 0.107526 2.589 134 108 91
0.470084 0.108481 2.612 132 105 84
0.510703 0.109436 2.635 129 110 80
0.547181 0.109436 2.635 129 103 78
0.58366 0.109436 2.635 128 106 85
0.625552 0.110391 2.658 121 98 80
0.662349 0.110391 2.658 125 102 84
0.699146 0.110391 2.658 128 100 76
0.742588 0.111388 2.682 129 101 89
0.779718 0.111388 2.682 124 104 79
0.824157 0.112385 2.706 122 95 76
0.861618 0.112385 2.706 123 98 76
0.89908 0.112385 2.706 118 94 82
0.936542 0.112385 2.706 113 92 73
0.956726 0.110391 2.658 119 97 76
0.976329 0.108481 2.612 112 93 76
0.986518 0.105698 2.545 121 99 78
1.01332 0.104826 2.524 121 99 76
1.02251 0.102251 2.462 120 104 88
1.03128 0.0998009 2.403 124 101 87
1.04771 0.0982227 2.365 122 103 88
1.05532 0.0959384 2.31 134 105 97
1.07083 0.0944848 2.275 131 101 91
1.07761 0.0923667 2.224 132 106 83
1.08448 0.0903732 2.176 134 108 93
1.10641 0.0897087 2.16 134 106 94
1.11264 0.0878397 2.115 128 103 83
1.12572 0.0865938 2.085 129 105 93
-1.11816 0.114683 2.071 171 159 135
-1.08212 0.113908 2.057 172 158 155
-1.06799 0.115458 2.085 171 161 149
-1.0466 0.116289 2.1 169 155 155
-1.0248 0.11712 2.115 163 150 144
-1.00258 0.11795 2.13 152 141 139
-0.97309 0.11795 2.13 150 136 133
-0.950247 0.118781 2.145 150 129 126
-0.920552 0.118781 2.145 141 127 116
-0.903732 0.120498 2.176 142 122 123
-0.873607 0.120498 2.176 138 118 111
-0.843483 0.120498 2.176 132 120 96
-0.819339 0.121384 2.192 130 118 102
-0.788993 0.121384 2.192 128 113 94
-0.775606 0.124097 2.241 127 111 96
-0.744582 0.124097 2.241 129 113 97
-0.718971 0.125038 2.258 124 100 98
-0.687711 0.125038 2.258 130 113 85
-0.661394 0.12598 2.275 134 112 99
-0.629899 0.12598 2.275 135 113 99
-0.602875 0.126921 2.292 143 121 100
-0.575631 0.127918 2.31 143 126 106
-0.547887 0.128915 2.328 144 125 108
-0.523854 0.130964 2.365 147 123 111
-0.491113 0.130964 2.365 151 129 115
-0.458373 0.130964 2.365 152 126 111
-0.429051 0.132016 2.384 145 117 96
-0.392891 0.130964 2.365 143 117 102
-0.365937 0.133068 2.403 139 117 96
-0.3353 0.13412 2.422 141 119 96
-0.30177 0.13412 2.422 139 113 96
-0.26824 0.13412 2.422 136 108 96
-0.238586 0.136335 2.462 136 112 86
-0.204503 0.136335 2.462 131 107 95
-0.170419 0.136335 2.462 127 99 87
-0.137443 0.137443 2.482 135 105 94
-0.103082 0.137443 2.482 128 105 87
-0.0687213 0.137443 2.482 132 105 86
-0.0346514 0.138605 2.503 136 106 95
0 0.138605 2.503 130 101 95
0.0346514 0.138605 2.503 131 109 86
0.0704656 0.140931 2.545 137 109 88
0.104826 0.139768 2.524 137 110 93
0.140931 0.140931 2.545 134 107 88
0.176164 0.140931 2.545 139 106 89
0.211397 0.140931 2.545 141 117 91
0.248762 0.142149 2.567 140 116 90
0.284299 0.142149 2.567 141 113 92
0.319836 0.142149 2.567 137 108 92
0.355374 0.142149 2.567 138 113 91
0.394261 0.143368 2.589 136 114 91
0.433924 0.144641 2.612 135 109 86
0.474224 0.145915 2.635 129 104 82
0.510703 0.145915 2.635 136 109 88
0.547181 0.145915 2.635 130 102 81
0.588755 0.147189 2.658 125 99 82
0.625552 0.147189 2.658 127 99 85
0.662349 0.147189 2.658 129 97 86
0.699146 0.147189 2.658 116 90 75
0.742588 0.148518 2.682 113 90 72
0.786695 0.149847 2.706 122 98 74
0.824157 0.149847 2.706 114 91 85
0.861618 0.149847 2.706 91 74 64
0.891106 0.148518 2.682 96 82 55
0.936542 0.149847 2.706 100 85 56
0.956726 0.147189 2.658 116 98 78
0.967732 0.143368 2.589 112 96 83
0.986518 0.140931 2.545 119 99 74
1.01332 0.139768 2.524 123 95 91
1.01421 0.135228 2.442 111 96 77
1.03943 0.13412 2.422 122 99 83
1.03929 0.129911 2.346 125 99 86
1.05532 0.127918 2.31 127 101 86
1.07083 0.12598 2.275 127 110 80
1.08585 0.124097 2.241 119 99 72
1.08448 0.120498 2.176 134 108 91
1.10641 0.119612 2.16 132 107 100
1.11264 0.11712 2.115 130 105 85
1.13382 0.116289 2.1 140 118 77
-1.13382 0.145361 2.1 139 119 121
-1.10475 0.145361 2.1 122 109 92
-1.07567 0.145361 2.1 136 111 106
-1.05408 0.1464 2.115 135 118 102
-1.03207 0.147438 2.13 143 122 101
-1.00964 0.148476 2.145 149 128 109
-0.994105 0.150622 2.176 146 123 105
-0.963981 0.150622 2.176 142 130 108
-0.933856 0.150622 2.176 149 127 116
-0.910377 0.151729 2.192 156 132 120
-0.880031 0.151729 2.192 151 129 116
-0.862089 0.153944 2.224 154 130 118
-0.8313 0.153944 2.224 151 130 109
-0.80663 0.155121 2.241 145 119 118
-0.78149 0.156298 2.258 144 121 103
-0.755879 0.157475 2.275 141 122 90
-0.718971 0.156298 2.258 143 116 105
-0.692889 0.157475 2.275 138 111 100
-0.666336 0.158651 2.292 132 109 91
-0.63959 0.159897 2.31 131 107 81
-0.612345 0.161143 2.328 136 104 91
-0.580116 0.161143 2.328 134 110 86
-0.552124 0.162389 2.346 138 109 103
-0.523854 0.163704 2.365 137 114 82
-0.491113 0.163704 2.365 138 116 93
-0.462055 0.16502 2.384 138 117 88
-0.432471 0.166335 2.403 139 111 87
-0.399204 0.166335 2.403 140 112 98
-0.36883 0.16765 2.422 134 108 95
-0.3353 0.16765 2.422 137 112 92
-0.30177 0.16765 2.422 135 110 88
-0.26824 0.16765 2.422 136 108 96
-0.238586 0.170419 2.462 141 112 98
-0.204503 0.170419 2.462 135 108 91
-0.171803 0.171803 2.482 133 107 90
-0.137443 0.171803 2.482 139 115 105
-0.103082 0.171803 2.482 139 112 93
-0.0693027 0.173257 2.503 133 112 85
-0.0346514 0.173257 2.503 137 109 95
0 0.17471 2.524 136 116 92
0.0346514 0.173257 2.503 131 109 88
0.0698842 0.17471 2.524 129 107 94
0.105698 0.176164 2.545 124 104 80
0.139768 0.17471 2.524 129 109 84
0.176164 0.176164 2.545 138 113 93
0.213224 0.177687 2.567 135 113 90
0.248762 0.177687 2.567 125 102 84
0.284299 0.177687 2.567 130 111 81
0.319836 0.177687 2.567 131 106 86
0.355374 0.177687 2.567 132 105 86
0.397764 0.180802 2.612 135 112 94
0.433924 0.180802 2.612 138 111 92
0.474224 0.182394 2.635 129 107 86
0.51516 0.183986 2.658 130 102 90
0.547181 0.182394 2.635 129 102 85
0.588755 0.183986 2.658 123 96 79
0.625552 0.183986 2.658 108 88 81
0.662349 0.183986 2.658 92 73 67
0.680997 0.17921 2.589 75 60 55
0.723207 0.180802 2.612 77 66 60
0.77274 0.183986 2.658 98 79 73
0.816847 0.185647 2.682 78 63 60
0.839011 0.182394 2.635 82 72 45
0.860206 0.17921 2.589 74 60 57
0.888434 0.177687 2.567 90 75 54
0.916053 0.176164 2.545 92 79 63
0.951286 0.176164 2.545 106 87 70
0.986518 0.176164 2.545 112 93 76
1.00489 0.173257 2.503 109 88 71
1.01421 0.169034 2.442 117 95 82
1.03128 0.166335 2.403 121 98 90
1.04771 0.163704 2.365 128 106 93
1.05532 0.159897 2.31 123 100 86
1.07083 0.157475 2.275 125 106 89
1.07761 0.153944 2.224 132 104 100
1.09245 0.151729 2.192 129 102 91
1.09872 0.148476 2.145 130 104 89
1.11264 0.1464 2.115 134 108 95
1.12572 0.144323 2.085 136 108 86
-1.14192 0.175679 2.115 135 118 90
-1.11264 0.175679 2.115 134 120 93
-1.08336 0.175679 2.115 132 113 96
-1.06903 0.178171 2.145 132 112 88
-1.0466 0.179417 2.16 140 107 102
-1.02423 0.180746 2.176 136 108 86
-1.00141 0.182075 2.192 137 110 91
-0.978157 0.183404 2.208 139 114 94
-0.947589 0.183404 2.208 142 115 94
-0.917022 0.183404 2.208 140 120 85
-0.892878 0.184733 2.224 146 119 102
-0.868679 0.186145 2.241 147 121 106
-0.837655 0.186145 2.241 138 125 106
-0.80663 0.186145 2.241 144 117 108
-0.787374 0.18897 2.275 139 120 105
-0.755879 0.18897 2.275 139 117 94
-0.729797 0.190382 2.292 145 120 98
-0.698066 0.190382 2.292 139 118 101
-0.666336 0.190382 2.292 136 116 89
-0.63959 0.191877 2.31 139 125 86
-0.612345 0.193372 2.328 142 118 106
-0.584601 0.194867 2.346 144 119 97
-0.552124 0.194867 2.346 140 118 94
-0.523854 0.196445 2.365 138 115 99
-0.495059 0.198024 2.384 139 116 100
-0.465737 0.199602 2.403 141 114 103
-0.43589 0.20118 2.422 143 115 91
-0.40236 0.20118 2.422 143 117 92
-0.36883 0.20118 2.422 141 120 93
-0.3353 0.20118 2.422 137 111 94
-0.304262 0.202841 2.442 143 115 93
-0.270455 0.202841 2.442 141 117 93
-0.238586 0.204503 2.462 147 118 110
-0.204503 0.204503 2.462 144 115 83
-0.171803 0.206164 2.482 133 112 85
-0.138605 0.207908 2.503 133 106 97
-0.103954 0.207908 2.503 137 113 101
-0.0698842 0.209652 2.524 133 107 92
-0.0349421 0.209652 2.524 134 106 84
0 0.209652 2.524 132 106 83
0.0349421 0.209652 2.524 113 95 83
0.0687213 0.206164 2.482 142 127 108
0.102251 0.204503 2.462 100 84 71
0.13412 0.20118 2.422 154 139 106
0.166335 0.199602 2.403 150 133 107
0.202841 0.202841 2.442 145 126 96
0.240524 0.206164 2.482 135 104 86
0.274885 0.206164 2.482 146 121 101
0.306754 0.204503 2.462 144 124 100
0.343606 0.206164 2.482 141 129 91
0.381165 0.207908 2.503 135 116 102
0.426448 0.213224 2.567 137 123 88
0.458026 0.211397 2.545 147 130 104
0.493259 0.211397 2.545 132 114 76
0.528492 0.211397 2.545 103 89 62
0.58366 0.218873 2.635 97 79 77
0.609313 0.215052 2.589 80 67 48
0.639673 0.213224 2.567 89 81 62
0.658376 0.207908 2.503 87 74 65
0.716839 0.215052 2.589 59 51 40
0.746285 0.213224 2.567 72 56 56
0.795528 0.216962 2.612 71 62 53
0.810354 0.211397 2.545 94 76 76
0.83861 0.209652 2.524 85 73 57
0.866284 0.207908 2.503 115 97 93
0.900935 0.207908 2.503 76 65 45
0.920261 0.204503 2.462 109 85 75
0.962098 0.206164 2.482 90 66 64
0.996458 0.206164 2.482 108 87 84
1.02251 0.204503 2.462 119 91 67
1.03128 0.199602 2.403 118 99 85
1.05613 0.198024 2.384 126 105 88
1.05532 0.191877 2.31 122 103 86
1.07083 0.18897 2.275 123 105 91
1.07761 0.184733 2.224 126 105 78
1.09245 0.182075 2.192 126 103 85
1.09872 0.178171 2.145 132 106 81
1.11264 0.175679 2.115 128 104 92
1.12572 0.173188 2.085 135 104 86
-1.14192 0.204959 2.115 150 128 107
-1.12053 0.206413 2.13 147 119 108
-1.09872 0.207867 2.145 148 121 100
-1.06903 0.207867 2.145 144 124 100
-1.0466 0.20932 2.16 144 129 106
-1.03176 0.212421 2.192 146 125 96
-1.00872 0.213972 2.208 143 121 100
-0.978157 0.213972 2.208 146 128 116
-0.947589 0.213972 2.208 142 119 105
-0.923667 0.215522 2.224 145 127 107
-0.899703 0.21717 2.241 149 129 104
-0.868679 0.21717 2.241 142 127 104
-0.837655 0.21717 2.241 146 118 96
-0.812749 0.218817 2.258 134 121 89
-0.787374 0.220465 2.275 143 126 108
-0.755879 0.220465 2.275 144 123 106
-0.729797 0.222112 2.292 144 121 107
-0.703548 0.223856 2.31 146 122 110
-0.676802 0.225601 2.328 140 118 105
-0.644573 0.225601 2.328 138 116 95
-0.612345 0.225601 2.328 141 119 105
-0.584601 0.227345 2.346 136 109 98
-0.552124 0.227345 2.346 146 119 100
-0.532271 0.232869 2.403 145 121 95
-0.495059 0.231027 2.384 143 121 98
-0.465737 0.232869 2.403 141 114 103
-0.43589 0.23471 2.422 143 116 99
-0.405683 0.236648 2.442 138 116 102
-0.36883 0.23471 2.422 137 111 94
-0.3353 0.23471 2.422 139 117 93
-0.304262 0.236648 2.442 134 112 91
-0.270455 0.236648 2.442 138 117 90
-0.240524 0.240524 2.482 134 114 89
-0.206164 0.240524 2.482 136 118 98
-0.173257 0.242559 2.503 139 113 98
-0.138605 0.242559 2.503 136 110 93
-0.104826 0.244595 2.524 137 116 95
-0.0698842 0.244595 2.524 136 108 94
-0.0349421 0.244595 2.524 131 108 94
0 0.244595 2.524 130 103 92
0.0349421 0.244595 2.524 94 81 64
0.0687213 0.240524 2.482 112 98 85
0.10059 0.23471 2.422 155 139 114
0.133068 0.232869 2.403 162 140 117
0.166335 0.232869 2.403 156 139 119
0.198024 0.231027 2.384 158 139 122
0.231027 0.231027 2.384 133 106 85
0.266136 0.232869 2.403 158 130 119
0.30177 0.23471 2.422 151 133 93
0.3353 0.23471 2.422 143 127 112
0.36883 0.23471 2.422 155 134 103
0.40236 0.23471 2.422 158 133 111
0.43589 0.23471 2.422 138 107 87
0.46942 0.23471 2.422 120 71 64
0.499004 0.232869 2.403 131 93 72
0.532271 0.232869 2.403 117 89 68
0.565538 0.232869 2.403 108 92 76
0.60354 0.23471 2.422 96 79 71
0.652852 0.240524 2.482 50 41 34
0.693027 0.242559 2.503 84 69 62
0.715759 0.238586 2.462 99 85 74
0.743751 0.236648 2.442 80 68 52
0.783926 0.238586 2.462 89 76 70
0.811365 0.236648 2.442 91 74 66
0.845172 0.236648 2.442 83 69 58
0.87178 0.23471 2.422 87 71 71
0.891106 0.231027 2.384 111 91 92
0.916745 0.229186 2.365 85 71 70
0.957114 0.231027 2.384 83 70 64
0.990118 0.231027 2.384 113 92 89
1.02312 0.231027 2.384 107 89 89
1.04771 0.229186 2.365 120 99 80
1.05532 0.223856 2.31 130 108 87
1.07083 0.220465 2.275 118 100 90
1.08585 0.21717 2.241 119 100 85
1.09245 0.212421 2.192 126 101 96
1.10641 0.20932 2.16 130 100 89
1.11264 0.204959 2.115 129 102 83
1.12572 0.202052 2.085 131 106 86
-1.15002 0.235901 2.13 138 116 102
-1.12053 0.235901 2.13 142 126 101
-1.09872 0.237562 2.145 144 129 100
-1.0765 0.239223 2.16 147 124 110
-1.05435 0.240995 2.176 143 112 107
-1.03176 0.242767 2.192 148 123 103
-1.00872 0.244539 2.208 150 129 112
-0.985245 0.246311 2.224 150 123 116
-0.954456 0.246311 2.224 146 123 105
-0.930727 0.248194 2.241 144 121 107
-0.899703 0.248194 2.241 147 130 100
-0.868679 0.248194 2.241 145 123 112
-0.844009 0.250077 2.258 142 120 109
-0.812749 0.250077 2.258 151 125 102
-0.787374 0.25196 2.275 144 118 105
-0.755879 0.25196 2.275 144 122 109
-0.729797 0.253842 2.292 142 117 95
-0.703548 0.255836 2.31 138 121 101
-0.676802 0.257829 2.328 141 117 105
-0.644573 0.257829 2.328 131 110 105
-0.612345 0.257829 2.328 143 114 98
-0.584601 0.259823 2.346 139 119 95
-0.556595 0.261927 2.365 137 116 99
-0.528063 0.264031 2.384 140 118 105
-0.499004 0.266136 2.403 140 114 99
-0.465737 0.266136 2.403 140 119 98
-0.43589 0.26824 2.422 140 113 102
-0.40236 0.26824 2.422 148 122 99
-0.371876 0.270455 2.442 144 118 101
-0.338069 0.270455 2.442 137 115 94
-0.304262 0.270455 2.442 134 113 94
-0.270455 0.270455 2.442 133 111 97
-0.238586 0.27267 2.462 134 112 89
-0.206164 0.274885 2.482 137 115 91
-0.173257 0.277211 2.503 134 106 94
-0.139768 0.279537 2.524 133 107 90
-0.104826 0.279537 2.524 130 103 94
-0.0698842 0.279537 2.524 127 105 84
-0.0349421 0.279537 2.524 127 105 84
0 0.279537 2.524 120 98 85
0.0349421 0.279537 2.524 102 83 79
0.0681675 0.27267 2.462 132 117 94
0.0982227 0.261927 2.365 163 144 127
0.129911 0.259823 2.346 167 141 118
0.161143 0.257829 2.328 161 144 116
0.193372 0.257829 2.328 152 132 108
0.223856 0.255836 2.31 152 133 103
0.253842 0.253842 2.292 152 132 108
0.287815 0.255836 2.31 165 142 111
0.322287 0.257829 2.328 141 123 103
0.357256 0.259823 2.346 106 91 72
0.396047 0.264031 2.384 155 135 111
0.429051 0.264031 2.384 156 132 108
0.458373 0.261927 2.365 154 123 95
0.491113 0.261927 2.365 153 138 107
0.519646 0.259823 2.346 159 135 107
0.552124 0.259823 2.346 146 130 114
0.580116 0.257829 2.328 149 103 103
0.60761 0.255836 2.31 96 71 66
0.660079 0.264031 2.384 96 78 74
0.693083 0.264031 2.384 85 75 63
0.7203 0.261927 2.365 91 77 66
0.76514 0.266136 2.403 92 80 66
0.792094 0.264031 2.384 91 79 67
0.825098 0.264031 2.384 90 78 64
0.858102 0.264031 2.384 102 90 78
0.884004 0.261927 2.365 95 83 69
0.902403 0.257829 2.328 94 78 65
0.927405 0.255836 2.31 97 92 70
0.951909 0.253842 2.292 82 73 58
0.976343 0.25196 2.275 109 87 89
1.00784 0.25196 2.275 93 74 67
1.03933 0.25196 2.275 116 95 74
1.07083 0.25196 2.275 112 91 70
1.07761 0.246311 2.224 125 101 91
1.08448 0.240995 2.176 125 99 86
1.10641 0.239223 2.16 123 105 81
1.11264 0.234239 2.115 129 102 81
1.13382 0.232578 2.1 133 107 92
-1.16621 0.269126 2.16 139 126 109
-1.13631 0.269126 2.16 141 124 106
-1.09872 0.267257 2.145 143 120 106
-1.08448 0.27112 2.176 145 124 97
-1.05435 0.27112 2.176 145 126 96
-1.03176 0.273113 2.192 140 118 107
-1.00872 0.275107 2.208 144 122 109
-0.985245 0.2771 2.224 144 125 108
-0.961752 0.279218 2.241 145 122 108
-0.930727 0.279218 2.241 149 125 113
-0.899703 0.279218 2.241 139 119 94
-0.868679 0.279218 2.241 140 121 107
-0.844009 0.281336 2.258 143 124 94
-0.812749 0.281336 2.258 140 120 96
-0.793257 0.285573 2.292 144 123 106
-0.761527 0.285573 2.292 143 120 106
-0.735528 0.287815 2.31 142 115 96
-0.709031 0.290058 2.328 143 120 102
-0.671569 0.287815 2.31 84 70 59
-0.617079 0.292301 2.346 115 96 89
-0.584601 0.292301 2.346 135 112 94
-0.556595 0.294668 2.365 138 115 99
-0.528063 0.297035 2.384 136 117 100
-0.50295 0.30177 2.422 140 112 101
-0.46942 0.30177 2.422 138 114 102
-0.439489 0.304262 2.442 132 109 91
-0.405683 0.304262 2.442 137 108 100
-0.371876 0.304262 2.442 138 116 95
-0.338069 0.304262 2.442 131 112 95
-0.304262 0.304262 2.442 138 110 96
-0.270455 0.304262 2.442 128 105 87
-0.240524 0.309246 2.482 139 111 97
-0.206164 0.309246 2.482 130 111 94
-0.171803 0.309246 2.482 127 104 88
-0.139768 0.314479 2.524 119 96 80
-0.104826 0.314479 2.524 130 101 97
-0.0698842 0.314479 2.524 124 99 79
-0.0349421 0.314479 2.524 124 108 95
0 0.317095 2.545 115 97 87
0.0352328 0.317095 2.545 107 86 81
0.0698842 0.314479 2.524 76 48 44
0.096686 0.290058 2.328 160 135 113
0.127918 0.287815 2.31 168 108 118
0.158651 0.285573 2.292 168 107 106
0.18897 0.283454 2.275 142 118 94
0.220465 0.283454 2.275 169 146 130
0.248194 0.279218 2.241 172 152 119
0.2771 0.2771 2.224 159 141 117
0.307889 0.2771 2.224 123 104 89
0.346444 0.283454 2.275 125 112 96
0.377939 0.283454 2.275 161 139 115
0.412494 0.285573 2.292 159 138 111
0.444224 0.285573 2.292 158 135 121
0.472424 0.283454 2.275 151 128 110
0.500153 0.281336 2.258 152 131 110
0.535414 0.283454 2.275 161 138 107
0.558436 0.279218 2.241 158 108 107
0.593932 0.281336 2.258 155 100 97
0.625192 0.281336 2.258 125 103 90
0.666336 0.285573 2.292 87 69 57
0.698066 0.285573 2.292 107 94 88
0.729797 0.285573 2.292 88 73 66
0.779469 0.292301 2.346 108 92 79
0.787374 0.283454 2.275 100 83 73
0.818868 0.283454 2.275 92 76 63
0.856718 0.285573 2.292 101 88 79
0.875269 0.281336 2.258 87 76 56
0.906528 0.281336 2.258 82 68 55
0.930727 0.279218 2.241 108 96 80
0.961752 0.279218 2.241 88 74 63
0.985245 0.2771 2.224 89 75 64
1.00141 0.273113 2.192 96 78 76
1.02423 0.27112 2.176 102 92 57
1.06211 0.273113 2.192 113 98 75
1.09245 0.273113 2.192 119 100 85
1.09872 0.267257 2.145 121 103 91
1.11264 0.263519 2.115 131 105 92
1.14192 0.263519 2.115 131 106 84
-1.15811 0.296952 2.145 148 120 119
-1.13631 0.299029 2.16 147 126 95
-1.10641 0.299029 2.16 149 124 104
-1.08448 0.301244 2.176 155 129 92
-1.06211 0.303459 2.192 142 117 112
-1.03929 0.305674 2.208 143 122 101
-1.00872 0.305674 2.208 146 121 101
-0.992776 0.310242 2.241 148 120 109
-0.961752 0.310242 2.241 150 123 114
-0.930727 0.310242 2.241 144 123 106
-0.906528 0.312596 2.258 143 120 106
-0.875269 0.312596 2.258 140 121 104
-0.844009 0.312596 2.258 140 119 102
-0.812749 0.312596 2.258 140 115 110
-0.799487 0.319795 2.31 139 120 105
-0.767507 0.319795 2.31 140 122 112
-0.741259 0.322287 2.328 139 117 94
-0.709031 0.322287 2.328 139 117 96
-0.666336 0.317303 2.292 27 22 19
-0.573416 0.286708 2.071 34 26 24
-0.617079 0.324779 2.346 83 69 56
-0.584601 0.324779 2.346 142 112 88
-0.556595 0.327409 2.365 136 115 94
-0.532271 0.33267 2.403 136 114 90
-0.50295 0.3353 2.422 139 112 103
-0.46942 0.3353 2.422 139 118 97
-0.43589 0.3353 2.422 136 114 93
-0.405683 0.338069 2.442 142 114 92
-0.371876 0.338069 2.442 142 113 97
-0.338069 0.338069 2.442 137 110 93
-0.306754 0.340838 2.462 138 113 93
-0.27267 0.340838 2.462 127 105 91
-0.240524 0.343606 2.482 126 103 85
-0.206164 0.343606 2.482 131 110 91
-0.173257 0.346514 2.503 126 109 91
-0.139768 0.349421 2.524 125 104 87
-0.104826 0.349421 2.524 122 99 83
-0.0698842 0.349421 2.524 124 100 90
-0.0352328 0.352328 2.545 115 93 82
0 0.352328 2.545 111 86 79
0.0352328 0.352328 2.545 99 83 67
0.0704656 0.352328 2.545 78 59 61
0.0959384 0.319795 2.31 121 81 82
0.124097 0.310242 2.241 176 126 125
0.151729 0.303459 2.192 158 131 110
0.180746 0.301244 2.176 151 134 106
0.212421 0.303459 2.192 165 147 111
0.242767 0.303459 2.192 153 136 108
0.273113 0.303459 2.192 176 160 126
0.301244 0.301244 2.176 174 150 126
0.328932 0.299029 2.16 158 140 116
0.356343 0.296952 2.145 169 147 123
0.386038 0.296952 2.145 150 135 112
0.424842 0.303459 2.192 157 137 112
0.461834 0.307889 2.224 157 129 108
0.489078 0.305674 2.208 147 128 98
0.519646 0.305674 2.208 149 132 106
0.546226 0.303459 2.192 159 131 119
0.572363 0.301244 2.176 160 135 105
0.602488 0.301244 2.176 155 129 104
0.627961 0.299029 2.16 127 109 95
0.657864 0.299029 2.16 114 106 83
0.692861 0.301244 2.176 80 67 51
0.75023 0.312596 2.258 99 89 77
0.769722 0.307889 2.224 107 88 81
0.788993 0.303459 2.192 107 93 80
0.813359 0.301244 2.176 108 93 74
0.855887 0.305674 2.208 90 73 66
0.886455 0.305674 2.208 91 74 67
0.903732 0.301244 2.176 99 90 73
0.933856 0.301244 2.176 93 81 69
0.956892 0.299029 2.16 93 86 68
0.986795 0.299029 2.16 84 67 57
1.00964 0.296952 2.145 107 91 78
1.03207 0.294876 2.13 96 68 64
1.06155 0.294876 2.13 100 81 66
1.09104 0.294876 2.13 124 102 91
1.11264 0.292799 2.115 122 101 82
1.13382 0.290723 2.1 126 107 90
-1.15811 0.326648 2.145 138 119 104
-1.13631 0.328932 2.16 145 123 99
-1.10641 0.328932 2.16 147 122 102
-1.08448 0.331368 2.176 143 122 101
-1.05435 0.331368 2.176 150 132 108
-1.03929 0.336241 2.208 149 126 110
-1.01603 0.338678 2.224 150 123 112
-0.985245 0.338678 2.224 141 116 109
-0.961752 0.341267 2.241 150 124 111
-0.930727 0.341267 2.241 141 120 101
-0.906528 0.343856 2.258 141 120 103
-0.875269 0.343856 2.258 141 117 105
-0.850363 0.346444 2.275 141 118 100
-0.824987 0.349033 2.292 139 113 88
-0.793257 0.349033 2.292 141 119 108
-0.767507 0.351774 2.31 137 116 95
-0.735528 0.351774 2.31 136 117 100
-0.709031 0.354515 2.328 132 116 100
-0.671569 0.351774 2.31 18 10 7
-0.573416 0.315379 2.071 28 17 23
-0.544745 0.315379 2.071 78 65 59
-0.584601 0.357256 2.346 135 112 96
-0.556595 0.36015 2.365 133 110 92
-0.532271 0.365937 2.403 135 112 96
-0.50295 0.36883 2.422 136 113 97
-0.46942 0.36883 2.422 130 109 90
-0.439489 0.371876 2.442 130 104 87
-0.405683 0.371876 2.442 137 110 91
-0.371876 0.371876 2.442 131 113 91
-0.338069 0.371876 2.442 129 108 91
-0.304262 0.371876 2.442 127 105 84
-0.27267 0.374921 2.462 132 106 91
-0.242559 0.381165 2.503 136 110 97
-0.207908 0.381165 2.503 126 104 91
-0.17471 0.384363 2.524 128 103 98
-0.139768 0.384363 2.524 132 101 83
-0.104826 0.384363 2.524 124 96 82
-0.0704656 0.387561 2.545 111 86 82
-0.0352328 0.387561 2.545 113 97 84
0 0.387561 2.545 110 91 76
0.0352328 0.387561 2.545 107 82 86
0.0704656 0.387561 2.545 69 57 43
0.0998009 0.365937 2.403 42 31 29
0.125038 0.343856 2.258 138 110 107
0.150622 0.331368 2.176 153 130 114
0.176925 0.324363 2.13 167 147 120
0.204959 0.322079 2.115 163 142 111
0.232578 0.319795 2.1 149 135 109
0.26165 0.319795 2.1 109 99 87
0.292799 0.322079 2.115 148 133 100
0.324363 0.324363 2.13 165 143 119
0.353851 0.324363 2.13 168 147 120
0.380639 0.322079 2.115 172 156 130
0.404104 0.317511 2.085 164 146 126
0.430062 0.315379 2.071 139 106 87
0.471801 0.324363 2.13 118 65 61
0.504819 0.326648 2.145 79 39 29
0.534514 0.326648 2.145 131 88 81
0.564209 0.326648 2.145 92 29 22
0.589751 0.324363 2.13 129 41 39
0.614878 0.322079 2.115 155 141 106
0.635021 0.317511 2.085 145 124 97
0.663886 0.317511 2.085 138 117 96
0.697734 0.319795 2.1 90 72 62
0.747572 0.328932 2.16 98 83 78
0.772076 0.326648 2.145 96 82 69
0.784951 0.319795 2.1 95 80 57
0.814023 0.319795 2.1 90 78 64
0.861162 0.326648 2.145 86 68 56
0.878397 0.322079 2.115 110 99 71
0.90124 0.319795 2.1 100 86 73
0.930312 0.319795 2.1 99 88 70
0.952532 0.317511 2.085 99 86 67
0.988457 0.319795 2.1 86 72 59
1.01753 0.319795 2.1 109 100 85
1.03913 0.317511 2.085 95 74 69
1.06799 0.317511 2.085 97 78 71
1.08212 0.313247 2.057 100 82 68
1.13382 0.319795 2.1 134 106 84
-1.16621 0.358835 2.16 144 123 104
-1.13631 0.358835 2.16 148 126 115
-1.1146 0.361493 2.176 137 119 99
-1.08448 0.361493 2.176 142 116 117
-1.05435 0.361493 2.176 144 121 107
-1.03929 0.366809 2.208 137 117 106
-1.01603 0.369467 2.224 149 129 105
-0.992776 0.372291 2.241 135 114 95
-0.961752 0.372291 2.241 139 115 91
-0.930727 0.372291 2.241 136 114 103
-0.906528 0.375115 2.258 142 115 94
-0.875269 0.375115 2.258 142 120 97
-0.850363 0.377939 2.275 139 119 108
-0.824987 0.380763 2.292 141 114 107
-0.799487 0.383754 2.31 136 116 83
-0.767507 0.383754 2.31 137 115 101
-0.741259 0.386744 2.328 131 109 96
-0.714513 0.389734 2.346 134 110 82
-0.577292 0.346375 2.085 22 23 18
-0.544745 0.344049 2.071 66 60 46
-0.594071 0.396047 2.384 119 98 93
-0.556595 0.392891 2.365 119 101 81
-0.53648 0.40236 2.422 119 96 80
-0.50295 0.40236 2.422 116 94 80
-0.46942 0.40236 2.422 109 90 75
-0.439489 0.405683 2.442 112 92 81
-0.405683 0.405683 2.442 127 101 88
-0.371876 0.405683 2.442 128 104 80
-0.338069 0.405683 2.442 126 107 92
-0.304262 0.405683 2.442 130 107 89
-0.27267 0.409005 2.462 121 102 88
-0.242559 0.415816 2.503 125 104 87
-0.207908 0.415816 2.503 131 107 95
-0.17471 0.419305 2.524 121 103 79
-0.139768 0.419305 2.524 121 98 92
-0.105698 0.422794 2.545 116 94 81
-0.0704656 0.422794 2.545 111 95 82
-0.0352328 0.422794 2.545 109 92 76
0 0.422794 2.545 102 84 70
0.0352328 0.422794 2.545 98 79 62
0.0704656 0.422794 2.545 58 47 43
0.0998009 0.399204 2.403 49 37 39
0.12598 0.377939 2.275 132 111 90
0.148476 0.356343 2.145 160 144 119
0.175679 0.351359 2.115 175 160 129
0.200695 0.344049 2.071 164 144 119
0.227816 0.341724 2.057 158 142 116
0.256293 0.341724 2.057 150 131 116
0.282831 0.339398 2.043 109 95 86
0.313247 0.341724 2.057 140 124 101
0.344049 0.344049 2.071 158 137 110
0.37272 0.344049 2.071 172 157 128
0.398677 0.341724 2.057 176 156 121
0.424247 0.339398 2.043 169 152 122
0.446328 0.334746 2.015 168 142 127
0.471164 0.332587 2.002 114 88 71
0.505608 0.337072 2.029 132 84 64
0.533697 0.337072 2.029 122 67 73
0.577292 0.346375 2.085 155 117 94
0.606156 0.346375 2.085 151 133 113
0.626493 0.341724 2.057 159 139 102
0.650512 0.339398 2.043 150 127 111
0.674144 0.337072 2.029 145 131 105
0.702233 0.337072 2.029 106 87 80
0.750479 0.346375 2.085 102 86 71
0.768878 0.341724 2.057 115 105 93
0.791928 0.339398 2.043 96 83 75
0.837073 0.346375 2.085 103 85 71
0.854309 0.341724 2.057 101 95 69
0.882786 0.341724 2.057 107 90 72
0.905061 0.339398 2.043 101 81 82
0.933344 0.339398 2.043 106 90 77
0.955037 0.337072 2.029 107 91 76
0.983127 0.337072 2.029 94 84 74
1.01819 0.339398 2.043 110 103 84
1.03931 0.337072 2.029 84 69 64
1.05319 0.332587 2.002 113 89 85
1.09548 0.337072 2.029 109 93 77
-1.16621 0.388738 2.16 141 123 103
-1.13631 0.388738 2.16 143 123 98
-1.1146 0.391617 2.176 134 116 96
-1.08448 0.391617 2.176 143 114 100
-1.06211 0.394497 2.192 135 118 108
-1.04682 0.400256 2.224 139 119 108
-1.01603 0.400256 2.224 134 111 93
-0.992776 0.403315 2.241 142 117 95
-0.961752 0.403315 2.241 129 109 85
-0.937788 0.406375 2.258 136 108 105
-0.906528 0.406375 2.258 129 103 90
-0.875269 0.406375 2.258 125 104 85
-0.850363 0.409434 2.275 119 100 83
-0.824987 0.412494 2.292 104 90 79
-0.799487 0.415733 2.31 105 89 66
-0.773488 0.418973 2.328 108 81 72
-0.741259 0.418973 2.328 95 76 69
-0.709031 0.418973 2.328 80 66 53
-0.573416 0.37272 2.071 23 23 13
-0.580116 0.418973 2.328 52 43 34
-0.547887 0.418973 2.328 65 55 45
-0.507685 0.412494 2.292 67 52 47
-0.472424 0.409434 2.275 52 45 39
-0.444224 0.412494 2.292 59 45 45
-0.406375 0.406375 2.258 64 49 44
-0.380763 0.412494 2.292 101 83 69
-0.374921 0.443089 2.462 126 104 83
-0.338069 0.439489 2.442 126 105 86
-0.306754 0.443089 2.462 131 104 93
-0.274885 0.446688 2.482 126 103 95
-0.242559 0.450468 2.503 125 96 90
-0.209652 0.454247 2.524 126 98 94
-0.17471 0.454247 2.524 122 100 89
-0.139768 0.454247 2.524 120 95 88
-0.105698 0.458026 2.545 116 94 81
-0.0704656 0.458026 2.545 109 86 72
-0.0352328 0.458026 2.545 115 96 82
0 0.458026 2.545 107 90 72
0.0355374 0.461986 2.567 95 77 75
0.0710747 0.461986 2.567 66 52 39
0.0990118 0.429051 2.384 53 41 45
0.127918 0.415733 2.31 57 43 42
0.147438 0.383338 2.13 153 137 104
0.172025 0.37272 2.071 161 143 123
0.196625 0.365161 2.029 150 130 103
0.221724 0.360302 2.002 152 135 107
0.247696 0.357783 1.988 164 147 119
0.275217 0.357783 1.988 168 147 120
0.306851 0.362642 2.015 162 144 122
0.332587 0.360302 2.002 152 135 117
0.362642 0.362642 2.015 165 140 109
0.390537 0.362642 2.015 168 147 120
0.418433 0.362642 2.015 168 151 123
0.440348 0.357783 1.988 168 154 125
0.46175 0.353103 1.962 171 150 123
0.485922 0.350944 1.95 143 131 117
0.509498 0.348604 1.937 132 117 88
0.539913 0.350944 1.95 139 121 99
0.577956 0.357783 1.988 152 131 110
0.609742 0.360302 2.002 150 128 107
0.633 0.357783 1.988 105 42 37
0.656202 0.355443 1.975 110 48 37
0.670392 0.348604 1.937 130 83 77
0.692889 0.346444 1.925 116 82 70
0.724024 0.348604 1.937 110 89 84
0.765569 0.355443 1.975 94 86 75
0.803751 0.360302 2.002 90 74 61
0.831466 0.360302 2.002 99 82 74
0.853174 0.357783 1.988 104 90 77
0.886898 0.360302 2.002 125 108 92
0.908217 0.357783 1.988 114 98 75
0.92962 0.355443 1.975 101 87 60
0.950663 0.353103 1.962 122 109 92
0.977824 0.353103 1.962 98 83 64
1.00499 0.353103 1.962 109 93 80
1.02584 0.350944 1.95 100 82 60
1.05283 0.350944 1.95 105 84 65
-1.16621 0.41864 2.16 137 115 101
-1.14473 0.421741 2.176 138 121 93
-1.1146 0.421741 2.176 140 117 103
-1.10043 0.427944 2.208 134 117 101
-1.06211 0.424842 2.192 137 119 99
-1.05482 0.434339 2.241 135 113 100
-1.0238 0.434339 2.241 132 109 93
-0.992776 0.434339 2.241 78 62 49
-0.954456 0.431045 2.224 64 53 51
-0.917022 0.427944 2.208 67 59 56
-0.892878 0.431045 2.224 71 58 52
-0.862089 0.431045 2.224 67 58 51
-0.819339 0.424842 2.192 63 49 38
-0.794752 0.427944 2.208 58 48 21
-0.758647 0.424842 2.192 66 51 54
-0.728301 0.424842 2.192 63 50 44
-0.692861 0.421741 2.176 68 59 50
-0.66761 0.424842 2.192 65 54 48
-0.627961 0.41864 2.16 47 38 39
-0.577292 0.404104 2.085 66 57 62
-0.546226 0.424842 2.192 45 43 30
-0.519646 0.427944 2.208 52 47 41
-0.489078 0.427944 2.208 57 47 38
-0.455188 0.424842 2.192 56 48 46
-0.421741 0.421741 2.176 61 52 47
-0.397376 0.427944 2.208 54 39 36
-0.361493 0.421741 2.176 72 59 50
-0.371876 0.473296 2.442 120 97 89
-0.340838 0.477173 2.462 123 101 87
-0.309246 0.481049 2.482 116 93 87
-0.27267 0.477173 2.462 120 97 89
-0.242559 0.485119 2.503 120 99 82
-0.209652 0.489189 2.524 122 96 83
-0.17471 0.489189 2.524 115 95 84
-0.139768 0.489189 2.524 111 93 79
-0.105698 0.493259 2.545 110 90 79
-0.0704656 0.493259 2.545 110 92 78
-0.0352328 0.493259 2.545 109 91 81
0 0.493259 2.545 104 80 76
0.0355374 0.497523 2.567 93 77 62
0.0704656 0.493259 2.545 47 38 23
0.0990118 0.462055 2.384 53 40 34
0.127918 0.447713 2.31 42 34 31
0.151729 0.424842 2.192 98 85 76
0.172025 0.401391 2.071 142 124 100
0.196625 0.393251 2.029 155 140 107
0.221724 0.388018 2.002 156 142 116
0.244456 0.380265 1.962 157 131 114
0.266496 0.373094 1.925 167 149 125
0.293145 0.373094 1.925 159 136 120
0.321788 0.37542 1.937 158 138 113
0.353103 0.380265 1.962 165 145 120
0.377939 0.377939 1.95 168 143 123
0.404935 0.377939 1.95 161 146 115
0.431931 0.377939 1.95 168 154 127
0.455867 0.37542 1.937 181 143 130
0.479692 0.373094 1.925 176 105 113
0.502922 0.370574 1.912 174 145 129
0.522747 0.365923 1.888 160 136 110
0.548884 0.365923 1.888 157 130 109
0.578676 0.368249 1.9 143 132 104
0.608801 0.370574 1.912 135 97 76
0.63959 0.373094 1.925 118 37 44
0.66174 0.370574 1.912 153 97 110
0.679571 0.365923 1.888 142 84 72
0.697111 0.361465 1.865 140 90 83
0.72293 0.361465 1.865 120 105 86
0.757983 0.365923 1.888 107 88 92
0.804471 0.37542 1.937 103 86 78
0.831286 0.37542 1.937 110 94 79
0.858102 0.37542 1.937 104 90 64
0.884918 0.37542 1.937 93 81 59
0.906085 0.373094 1.925 113 93 92
0.932735 0.373094 1.925 111 93 79
0.959384 0.373094 1.925 106 93 77
0.979375 0.370574 1.912 117 89 86
0.999532 0.368249 1.9 97 82 61
1.03231 0.370574 1.912 114 95 78
-1.17485 0.451866 2.176 129 114 81
-1.14473 0.451866 2.176 132 114 94
-1.1146 0.451866 2.176 137 119 105
-1.10043 0.458511 2.208 133 113 106
-1.06986 0.458511 2.208 133 110 102
-1.05482 0.465364 2.241 130 114 99
-1.0238 0.465364 2.241 125 115 88
-0.936957 0.439199 2.115 66 56 55
-0.907677 0.439199 2.115 68 52 52
-0.878397 0.439199 2.115 69 54 57
-0.843095 0.436084 2.1 74 60 59
-0.819838 0.439199 2.115 73 60 44
-0.790558 0.439199 2.115 68 54 53
-0.766677 0.442314 2.13 63 56 48
-0.737189 0.442314 2.13 63 52 48
-0.707702 0.442314 2.13 70 61 54
-0.668662 0.436084 2.1 63 46 54
-0.644158 0.439199 2.115 61 48 42
-0.614878 0.439199 2.115 30 29 24
-0.573416 0.430062 2.071 36 29 36
-0.544745 0.430062 2.071 27 21 21
-0.530776 0.442314 2.13 60 49 47
-0.497759 0.439199 2.115 65 54 48
-0.475124 0.445428 2.145 63 55 42
-0.445428 0.445428 2.145 71 58 50
-0.415733 0.445428 2.145 62 49 41
-0.386038 0.445428 2.145 64 53 47
-0.351359 0.439199 2.115 65 50 43
-0.377967 0.51541 2.482 99 79 68
-0.340838 0.511256 2.462 107 88 73
-0.306754 0.511256 2.462 111 89 76
-0.274885 0.51541 2.482 114 92 81
-0.244595 0.524131 2.524 118 97 76
-0.209652 0.524131 2.524 115 95 71
-0.17471 0.524131 2.524 111 92 77
-0.140931 0.528492 2.545 112 90 77
-0.105698 0.528492 2.545 115 93 79
-0.0704656 0.528492 2.545 111 90 71
-0.0355374 0.53306 2.567 103 84 67
0 0.53306 2.567 108 88 79
0.0355374 0.53306 2.567 89 72 62
0.0687213 0.51541 2.482 45 35 34
0.0990118 0.495059 2.384 44 34 33
0.127918 0.479692 2.31 47 36 40
0.153944 0.461834 2.224 50 36 35
0.174434 0.436084 2.1 126 115 85
0.195269 0.418433 2.015 151 133 111
0.218734 0.410126 1.975 162 142 118
0.241341 0.402235 1.937 164 146 126
0.264696 0.397044 1.912 159 144 115
0.287511 0.39206 1.888 176 157 127
0.309827 0.387284 1.865 155 141 106
0.333486 0.384792 1.853 167 141 116
0.361465 0.387284 1.865 171 133 120
0.384792 0.384792 1.853 137 96 94
0.415539 0.389568 1.876 117 72 75
0.444335 0.39206 1.888 168 107 114
0.467482 0.389568 1.876 175 103 115
0.493453 0.389568 1.876 177 104 113
0.519424 0.389568 1.876 171 160 128
0.538709 0.384792 1.853 170 155 126
0.561011 0.382508 1.842 160 135 104
0.583009 0.380224 1.831 153 137 112
0.612012 0.382508 1.842 156 116 108
0.637513 0.382508 1.842 160 112 110
0.663013 0.382508 1.842 154 134 109
0.684402 0.380224 1.831 158 141 115
0.696959 0.373371 1.798 146 129 103
0.726266 0.375655 1.809 133 119 90
0.755879 0.377939 1.82 101 89 73
0.805108 0.389568 1.876 110 89 84
