ply
format ascii 1.0
element vertex 1291
property float x
property float y
property float z
property uchar red
property uchar green
property uchar blue
end_header
0.247852 0.0239436 2.55712 141 118 86
0.283079 0.0241758 2.55772 142 114 102
0.318306 0.0244079 2.55831 141 111 85
0.35651 0.0248394 2.58096 133 106 87
0.395324 0.0252749 2.60362 137 110 91
0.427573 0.0253077 2.58216 134 108 91
0.466996 0.0257472 2.60483 131 106 84
0.502832 0.0259834 2.60543 132 108 84
0.538668 0.0262196 2.60604 133 104 90
0.574504 0.0264558 2.60664 137 106 88
0.61034 0.0266919 2.60725 126 106 71
0.651836 0.0271533 2.63095 124 98 83
0.699946 0.027846 2.67777 125 104 75
0.736737 0.0280885 2.67839 124 99 77
0.773528 0.028331 2.67901 122 93 77
0.81032 0.0285734 2.67964 121 107 80
0.854677 0.0290618 2.70439 123 94 78
0.891801 0.0293065 2.70501 115 93 79
0.928924 0.0295511 2.70564 125 97 86
0.957484 0.0295433 2.68212 127 102 82
0.960546 0.0288202 2.59115 119 92 83
0.987619 0.028819 2.5696 120 99 82
1.00612 0.0285978 2.52791 124 101 93
1.01562 0.0281623 2.46705 124 103 82
1.02471 0.0277485 2.4092 127 106 75
1.03308 0.0273462 2.35332 128 105 91
1.04897 0.0271569 2.31759 129 107 83
1.05685 0.0267923 2.26671 123 97 80
1.07969 0.0268039 2.25009 123 110 78
1.0867 0.0264581 2.2022 136 118 104
1.0934 0.0261266 2.1563 132 106 89
1.11504 0.0261467 2.14166 133 108 88
-1.15189 0.0398198 2.07278 190 177 168
-1.11543 0.039752 2.0594 177 163 152
-1.08677 0.0399409 2.05988 176 158 154
-1.06532 0.0403904 2.07425 182 166 166
-1.04398 0.0408612 2.0896 189 171 159
-1.02222 0.0413346 2.10497 180 167 158
-1.00006 0.0418109 2.12034 189 172 164
-0.970573 0.0420052 2.12084 184 174 165
-0.941091 0.0421995 2.12134 163 151 139
-0.918092 0.0426812 2.13672 189 170 163
-0.888401 0.0428769 2.13722 183 168 161
-0.864779 0.0433627 2.15262 168 158 149
-0.841133 0.0438706 2.16902 184 166 154
-0.811014 0.0440691 2.16953 186 169 161
-0.786703 0.0445815 2.18593 164 145 131
-0.761949 0.0450968 2.20235 180 164 148
-0.731387 0.0452982 2.20287 181 162 158
-0.705969 0.0458178 2.21929 176 157 143
-0.680416 0.0463604 2.23672 186 167 150
-0.649397 0.0465648 2.23725 156 137 131
-0.623137 0.047112 2.25469 180 158 145
-0.591883 0.047318 2.25521 175 161 148
-0.564918 0.0478698 2.27267 178 154 150
-0.537482 0.0484248 2.29013 172 152 153
-0.505757 0.0486339 2.29066 166 148 138
-0.477826 0.0492141 2.30913 177 158 151
-0.449397 0.0497976 2.32761 152 133 127
-0.417174 0.05001 2.32816 172 155 145
-0.387997 0.0505984 2.34665 161 145 130
-0.355524 0.0508124 2.34719 171 155 142
-0.323052 0.0510264 2.34774 170 153 143
-0.290579 0.0512405 2.34829 172 154 144
-0.262435 0.0522623 2.38676 146 127 113
-0.229437 0.0524797 2.38732 166 149 139
-0.196438 0.0526972 2.38787 152 129 121
-0.163439 0.0529147 2.38843 168 154 145
-0.132665 0.0539538 2.42694 159 139 128
-0.0991406 0.0541748 2.42751 163 143 134
-0.0656161 0.0543957 2.42808 166 147 130
-0.0320916 0.0546166 2.42864 172 149 135
0.00124295 0.0561568 2.4892 125 107 85
0.035598 0.0563833 2.48978 141 119 96
0.0699529 0.0566097 2.49036 142 117 95
0.105113 0.0573036 2.51195 132 111 84
0.140855 0.0580013 2.53355 137 111 86
0.175792 0.0582315 2.53414 142 114 90
0.210728 0.0584618 2.53473 137 106 88
0.247633 0.0591672 2.55635 135 114 87
0.28286 0.0593994 2.55694 140 114 91
0.318087 0.0596315 2.55754 139 114 94
0.356289 0.0603675 2.58018 140 113 92
0.395101 0.0611074 2.60283 141 116 86
0.430937 0.0613436 2.60344 133 113 80
0.466773 0.0615798 2.60404 135 103 88
0.502609 0.061816 2.60465 133 105 81
0.538445 0.0620521 2.60525 131 101 75
0.574281 0.0622883 2.60585 129 110 78
0.615457 0.0630659 2.62955 124 101 70
0.657269 0.0638476 2.65325 128 101 84
0.693741 0.064088 2.65386 131 99 74
0.736509 0.064876 2.67758 121 98 82
0.7802 0.0656922 2.70232 120 98 74
0.810091 0.065361 2.67883 122 96 79
0.854447 0.0661815 2.70357 121 104 76
0.89157 0.0664262 2.7042 121 96 74
0.928693 0.0666708 2.70482 118 91 74
0.957255 0.0663309 2.68131 120 99 78
0.968478 0.0648862 2.6125 114 96 74
0.9874 0.0640426 2.56883 121 95 70
0.997538 0.0627228 2.506 121 103 81
1.01541 0.0619603 2.46631 121 102 85
1.0326 0.0612153 2.4276 119 97 76
1.04079 0.0600148 2.37075 129 107 84
1.05694 0.0593289 2.33502 132 106 89
1.05666 0.0578084 2.26603 140 115 95
1.07179 0.0571819 2.23328 132 103 89
1.08651 0.0565746 2.20154 136 109 100
1.10085 0.0559869 2.17078 132 103 85
1.11486 0.0554189 2.14102 140 110 100
-1.14428 0.0682263 2.05829 186 164 167
-1.10801 0.0679635 2.0449 184 167 157
-1.09435 0.0690572 2.07312 173 163 151
-1.07323 0.0697342 2.08847 182 168 155
-1.04416 0.0699258 2.08896 185 169 169
-1.02972 0.0710964 2.1192 172 162 152
-1.00024 0.0712907 2.11969 181 169 157
-0.970757 0.071485 2.12019 179 163 150
-0.941274 0.0716793 2.12069 165 151 140
-0.918276 0.0723686 2.13607 177 164 147
-0.901559 0.0735901 2.16734 186 166 157
-0.87144 0.0737887 2.16785 168 149 143
-0.841321 0.0739871 2.16836 178 160 158
-0.811201 0.0741856 2.16886 181 166 159
-0.792702 0.0754547 2.20116 163 143 136
-0.762139 0.0756562 2.20168 187 164 156
-0.731577 0.0758576 2.20219 176 160 145
-0.70616 0.0765987 2.21862 168 152 139
-0.680609 0.0773765 2.23604 176 162 149
-0.654586 0.0781574 2.25347 160 140 129
-0.623332 0.0783634 2.254 169 150 146
-0.596604 0.079149 2.27144 160 142 132
-0.565114 0.0793566 2.27197 148 129 125
-0.541973 0.0807638 2.30735 151 130 127
-0.514044 0.0815931 2.32581 140 119 114
-0.481821 0.0818055 2.32636 136 116 109
-0.453144 0.0826398 2.34484 127 102 97
-0.420671 0.0828538 2.34538 135 113 99
-0.388199 0.0830678 2.34593 117 95 84
-0.358681 0.0839435 2.36542 121 102 85
-0.328637 0.0848226 2.38492 125 102 96
-0.29321 0.084375 2.36653 120 98 87
-0.264806 0.0859244 2.40499 123 101 90
-0.233447 0.0868122 2.42451 127 105 92
-0.201649 0.0877388 2.44504 130 108 94
-0.167847 0.0879615 2.44561 134 115 98
-0.134046 0.0881843 2.44618 138 117 98
-0.10114 0.0891182 2.46673 140 117 99
-0.067062 0.0893428 2.4673 146 118 96
-0.0329838 0.0895673 2.46788 151 125 108
0.00109433 0.0897919 2.46845 155 128 109
0.0353843 0.0907349 2.48902 164 136 115
0.0702524 0.0917175 2.5106 130 104 79
0.105702 0.092704 2.53219 140 116 88
0.140638 0.0929342 2.53278 141 112 96
0.175575 0.0931645 2.53337 141 118 84
0.212187 0.0941586 2.55498 141 116 86
0.247414 0.0943908 2.55557 138 117 86
0.282641 0.0946229 2.55617 140 113 92
0.320537 0.0956614 2.5788 135 111 85
0.359042 0.0967038 2.60144 140 114 91
0.394878 0.09694 2.60204 133 106 85
0.430714 0.0971762 2.60265 139 114 92
0.46655 0.0974123 2.60325 130 110 86
0.502386 0.0976485 2.60386 124 104 79
0.542923 0.0987402 2.62753 123 102 83
0.579077 0.0989785 2.62814 127 102 80
0.620569 0.100076 2.65183 132 108 82
0.657042 0.100317 2.65245 119 98 77
0.705722 0.102323 2.70025 130 102 80
0.742846 0.102567 2.70088 126 102 78
0.779969 0.102812 2.7015 118 96 75
0.817092 0.103057 2.70213 121 99 85
0.854216 0.103301 2.70275 119 96 78
0.891339 0.103546 2.70338 117 95 74
0.928462 0.103791 2.70401 116 90 63
0.957026 0.103118 2.6805 120 96 86
0.968255 0.100719 2.61172 121 101 74
0.987181 0.0992662 2.56805 124 100 76
0.997324 0.0970745 2.50525 127 106 89
1.0152 0.0957583 2.46557 119 97 84
1.0243 0.0937391 2.40774 124 98 81
1.04059 0.0924841 2.37003 124 98 81
1.05674 0.0913 2.33432 129 103 78
1.06441 0.0894864 2.28247 132 105 88
1.0793 0.0883656 2.24873 128 100 89
1.08632 0.0866911 2.20087 134 106 95
1.10067 0.0856743 2.17013 131 103 89
1.11468 0.0846912 2.14038 132 106 91
-1.13666 0.0962453 2.0438 168 155 138
-1.12339 0.0977241 2.072 173 158 153
-1.09453 0.0979143 2.07249 169 155 154
-1.07341 0.0987989 2.08783 167 153 144
-1.05186 0.0996862 2.10319 163 133 133
-1.02991 0.100576 2.11855 150 138 126
-1.00042 0.100771 2.11904 142 123 125
-0.977842 0.101665 2.13441 133 122 120
-0.954845 0.102562 2.14979 143 131 117
-0.931866 0.103508 2.16617 131 111 102
-0.901747 0.103707 2.16668 133 119 110
-0.871627 0.103905 2.16718 120 110 98
-0.847762 0.104857 2.18358 123 104 97
-0.817421 0.105057 2.18409 125 103 82
-0.804878 0.107575 2.23326 121 99 85
-0.773859 0.107779 2.23379 131 112 105
-0.74284 0.107984 2.23431 134 115 98
-0.71729 0.108997 2.25173 139 113 96
-0.686035 0.109203 2.25226 138 122 97
-0.659779 0.110221 2.26969 137 115 92
-0.633052 0.111242 2.28713 141 121 97
-0.606121 0.112313 2.30557 143 119 95
-0.578691 0.113389 2.32402 149 128 99
-0.550764 0.114467 2.34248 152 127 107
-0.522562 0.115597 2.36194 155 128 117
-0.489827 0.115813 2.36249 154 133 106
-0.457091 0.116029 2.36304 152 126 109
-0.424356 0.116244 2.3636 147 121 108
-0.394839 0.117383 2.38308 147 118 102
-0.361841 0.1176 2.38364 140 114 99
-0.334229 0.119671 2.42208 135 109 92
-0.300705 0.119892 2.42264 133 105 91
-0.269461 0.121091 2.44315 135 109 92
-0.237665 0.122295 2.46368 129 103 90
-0.203587 0.122519 2.46425 125 104 87
-0.169508 0.122744 2.46483 130 104 81
-0.136604 0.123954 2.48537 129 106 90
-0.102249 0.124181 2.48595 129 102 93
-0.0678943 0.124407 2.48653 134 106 85
-0.0335393 0.124634 2.48711 132 107 85
0.000815674 0.12486 2.48769 133 108 86
0.0356119 0.127176 2.53024 135 110 88
0.0705482 0.127407 2.53083 142 114 100
0.105485 0.127637 2.53142 138 106 95
0.141514 0.128918 2.55301 137 111 86
0.176741 0.12915 2.55361 139 117 94
0.211968 0.129382 2.5542 133 108 88
0.247195 0.129614 2.5548 140 112 90
0.284784 0.130955 2.57742 136 113 95
0.320316 0.131189 2.57802 137 112 90
0.358819 0.132536 2.60065 137 111 84
0.394655 0.132773 2.60125 139 112 83
0.434235 0.134176 2.62491 140 115 85
0.470389 0.134415 2.62552 126 109 83
0.506544 0.134653 2.62613 129 101 89
0.542698 0.134891 2.62674 128 100 76
0.583869 0.136305 2.65041 126 99 88
0.620342 0.136546 2.65103 125 99 86
0.656815 0.136786 2.65164 120 99 80
0.705492 0.139442 2.69943 116 96 71
0.742615 0.139687 2.70006 121 98 84
0.779738 0.139932 2.70068 115 92 78
0.816862 0.140176 2.70131 116 93 75
0.853985 0.140421 2.70194 95 76 61
0.891108 0.140666 2.70256 99 87 71
0.928231 0.14091 2.70319 115 89 76
0.956798 0.139906 2.67969 115 95 86
0.968032 0.136551 2.61093 120 96 92
0.986962 0.13449 2.56728 125 101 73
1.00547 0.132525 2.52562 121 90 85
1.01499 0.129556 2.46482 120 98 84
1.0241 0.126734 2.40702 132 97 101
1.04874 0.125953 2.38845 123 101 77
1.04838 0.122323 2.31549 132 100 89
1.06422 0.120738 2.28178 128 105 91
1.07911 0.119146 2.24806 127 107 82
1.08614 0.116808 2.20021 135 107 96
1.10048 0.115362 2.16947 129 103 90
1.11449 0.113963 2.13973 131 106 84
-1.15243 0.126391 2.07088 138 122 97
-1.13172 0.12748 2.08621 141 120 91
-1.1106 0.128573 2.10155 131 115 89
-1.08132 0.128766 2.10205 135 117 95
-1.05205 0.128958 2.10254 144 126 104
-1.03741 0.130961 2.13276 142 118 116
-1.02241 0.133029 2.16398 147 122 115
-0.992292 0.133228 2.16449 154 134 110
-0.969315 0.134396 2.18086 148 132 106
-0.938974 0.134596 2.18137 145 127 113
-0.915332 0.135768 2.19775 148 128 103
-0.884769 0.135969 2.19827 151 130 103
-0.860463 0.137146 2.21466 153 121 108
-0.83609 0.138387 2.23206 143 121 97
-0.811247 0.13963 2.24946 137 120 94
-0.779993 0.139836 2.24999 142 120 99
-0.754444 0.141085 2.2674 133 112 91
-0.722954 0.141292 2.26793 131 102 98
-0.696699 0.142545 2.28536 139 114 92
-0.670268 0.143863 2.30379 131 105 92
-0.643339 0.145184 2.32222 137 110 93
-0.611115 0.145397 2.32277 138 111 102
-0.578892 0.145609 2.32331 138 112 95
-0.555501 0.148114 2.36067 136 114 90
-0.522766 0.148329 2.36122 136 115 88
-0.49003 0.148545 2.36177 140 117 85
-0.461042 0.149943 2.38124 144 117 96
-0.431527 0.151345 2.40072 139 114 94
-0.401487 0.15275 2.42021 143 116 95
-0.365004 0.151783 2.40184 141 107 97
-0.334438 0.153192 2.42134 138 115 101
-0.303473 0.154667 2.44184 137 114 98
-0.271955 0.156145 2.46235 138 112 95
-0.237877 0.156369 2.46293 139 111 97
-0.205528 0.157853 2.48345 134 112 89
-0.16972 0.156819 2.46408 138 111 92
-0.136818 0.158306 2.48461 129 103 88
-0.102463 0.158533 2.48519 138 113 91
-0.068108 0.158759 2.48577 135 112 98
-0.0341155 0.160317 2.50732 130 107 89
0.000602036 0.159212 2.48693 141 114 97
0.0353946 0.162109 2.52947 126 102 92
0.0698215 0.161002 2.50908 123 99 87
0.106067 0.163909 2.55165 128 106 92
0.140204 0.1628 2.53124 131 109 85
0.176521 0.164374 2.55283 141 112 94
0.211749 0.164606 2.55343 134 109 87
0.246976 0.164838 2.55402 132 110 86
0.282203 0.16507 2.55462 134 109 89
0.320095 0.166718 2.57723 130 103 84
0.358596 0.168369 2.59986 130 110 85
0.394432 0.168605 2.60047 128 108 81
0.43401 0.170327 2.62411 142 112 84
0.470164 0.170565 2.62472 138 106 85
0.501941 0.169314 2.60228 128 104 78
0.54717 0.172534 2.649 123 96 77
0.583643 0.172775 2.64961 118 92 69
0.620115 0.173015 2.65023 117 94 78
0.650937 0.171757 2.62777 88 70 56
0.687091 0.171995 2.62838 94 81 72
0.723245 0.172233 2.62899 83 70 61
0.779507 0.177051 2.69987 84 67 51
0.816631 0.177296 2.70049 68 57 51
0.838952 0.174457 2.65392 90 75 68
0.860301 0.171675 2.60832 74 63 45
0.873867 0.167635 2.54362 75 66 49
0.908803 0.167866 2.54421 92 74 72
0.959663 0.170933 2.58802 111 89 68
0.986743 0.169713 2.5665 118 97 80
1.00525 0.167167 2.52486 116 96 69
1.01478 0.163354 2.46408 108 88 81
1.03198 0.16099 2.42541 126 101 94
1.04019 0.157423 2.3686 128 104 100
1.05634 0.155242 2.33291 116 96 71
1.06402 0.151989 2.28109 127 100 89
1.07122 0.14886 2.23127 130 106 94
1.08595 0.146924 2.19955 132 105 88
1.1003 0.145049 2.16882 125 106 89
1.11431 0.143236 2.13909 126 98 97
-1.16933 0.157459 2.09992 128 111 95
-1.14005 0.157652 2.10042 137 108 92
-1.11872 0.158953 2.11576 127 115 91
-1.09697 0.160257 2.1311 136 105 103
-1.07481 0.161564 2.14646 135 112 106
-1.06053 0.164134 2.17866 140 113 102
-1.03018 0.164334 2.17917 141 116 109
-0.999844 0.164534 2.17968 145 123 102
-0.976646 0.165924 2.19605 145 123 102
-0.953006 0.167318 2.21243 145 122 106
-0.929341 0.168789 2.22981 142 119 105
-0.891438 0.167724 2.21347 147 120 99
-0.867302 0.169198 2.23085 147 121 98
-0.836283 0.169403 2.23138 146 118 97
-0.817619 0.172156 2.26565 146 120 107
-0.78613 0.172364 2.26618 148 120 109
-0.75464 0.172571 2.26671 140 122 100
-0.728622 0.174058 2.28413 142 119 101
-0.702441 0.175624 2.30254 139 118 101
-0.670467 0.175834 2.30308 141 120 103
-0.643539 0.177404 2.32151 142 121 100
-0.611315 0.177617 2.32206 146 120 97
-0.58364 0.179192 2.3405 150 119 99
-0.555705 0.180846 2.35995 146 121 99
-0.527244 0.182504 2.3794 141 115 102
-0.494245 0.182721 2.37996 145 116 110
-0.464996 0.184384 2.39943 136 113 95
-0.431734 0.184603 2.39999 143 115 91
-0.401695 0.186271 2.41947 137 119 99
-0.368171 0.186492 2.42004 136 110 93
-0.334646 0.186713 2.4206 141 117 93
-0.303683 0.188465 2.4411 143 117 100
-0.272167 0.19022 2.4616 139 112 95
-0.238089 0.190444 2.46218 139 112 91
-0.20401 0.190669 2.46275 137 114 96
-0.171387 0.192431 2.48328 131 113 89
-0.137032 0.192658 2.48386 139 110 94
-0.103622 0.194503 2.50539 133 112 83
-0.0689766 0.194731 2.50598 138 109 93
-0.034331 0.194959 2.50656 137 111 98
0.000314699 0.195188 2.50714 134 106 95
0.0351774 0.197042 2.52871 109 87 90
0.0690984 0.194016 2.48733 146 137 108
0.102693 0.19269 2.46793 99 92 76
0.134697 0.189806 2.42852 161 141 114
0.166973 0.188549 2.41009 152 132 108
0.203337 0.191806 2.44965 145 126 96
0.240873 0.195148 2.49023 147 115 92
0.275228 0.195375 2.49081 149 128 101
0.307162 0.194038 2.47137 144 124 99
0.343938 0.195828 2.49197 148 128 101
0.381417 0.197699 2.51357 142 116 91
0.422892 0.201222 2.55622 139 119 92
0.458119 0.201455 2.55681 143 125 87
0.485354 0.198384 2.51533 137 111 86
0.533063 0.203651 2.58005 111 84 67
0.57339 0.205619 2.6027 91 76 53
0.609226 0.205855 2.6033 88 73 66
0.634254 0.202615 2.55978 106 94 78
0.664032 0.201187 2.53931 87 73 60
0.710721 0.204821 2.58304 73 65 52
0.733904 0.201647 2.54049 61 43 43
0.781784 0.20529 2.58424 81 74 58
0.810389 0.203776 2.56276 92 76 63
0.831811 0.200668 2.52117 109 97 81
0.866457 0.200896 2.52176 84 72 58
0.879363 0.196261 2.46105 78 65 48
0.913165 0.196484 2.46162 82 76 54
0.954647 0.198305 2.4823 95 73 59
0.988725 0.19853 2.48287 100 86 57
1.0228 0.198754 2.48345 117 94 78
1.02369 0.192725 2.40556 116 98 84
1.03999 0.189892 2.36789 126 103 87
1.05614 0.187213 2.33221 128 103 96
1.07177 0.184608 2.29752 126 103 87
1.07873 0.180708 2.2467 132 108 98
1.08576 0.177041 2.19888 128 106 92
1.10011 0.174737 2.16817 130 108 87
1.12197 0.17372 2.15355 135 108 91
-1.16951 0.186731 2.09928 143 126 106
-1.15654 0.189553 2.12945 140 122 102
-1.13479 0.191065 2.14479 144 118 101
-1.09716 0.189944 2.13045 146 124 110
-1.075 0.191459 2.1458 147 127 116
-1.06071 0.194472 2.17799 150 122 110
-1.03796 0.196081 2.19435 146 129 103
-1.01476 0.197693 2.21071 144 123 96
-0.983981 0.197896 2.21123 148 126 102
-0.960553 0.199601 2.2286 146 128 104
-0.922413 0.198302 2.21227 145 128 102
-0.898514 0.20001 2.22965 141 122 105
-0.867495 0.200214 2.23017 147 126 105
-0.84289 0.201927 2.24756 147 121 104
-0.817815 0.203643 2.26495 139 120 103
-0.786325 0.203851 2.26548 144 121 105
-0.754836 0.204058 2.26602 148 131 105
-0.728819 0.20578 2.28343 148 121 110
-0.70264 0.207595 2.30184 142 121 102
-0.675963 0.209412 2.32026 143 122 105
-0.643739 0.209625 2.3208 143 121 97
-0.616314 0.211447 2.33924 141 120 93
-0.583842 0.211661 2.33979 140 113 104
-0.555909 0.213578 2.35923 147 122 100
-0.531725 0.217204 2.39757 140 117 101
-0.498464 0.217423 2.39813 142 115 94
-0.468953 0.219351 2.4176 144 120 94
-0.435428 0.219572 2.41817 137 116 97
-0.401904 0.219792 2.41873 138 116 95
-0.368379 0.220013 2.4193 140 115 95
-0.334855 0.220234 2.41986 140 112 98
-0.303893 0.222263 2.44035 137 115 94
-0.272379 0.224295 2.46085 138 109 95
-0.2383 0.224519 2.46143 134 111 95
-0.205955 0.226557 2.48194 129 110 96
-0.173129 0.228688 2.50346 136 118 94
-0.138483 0.228917 2.50404 135 118 92
-0.103838 0.229145 2.50463 134 107 90
-0.0691921 0.229373 2.50521 135 107 93
-0.0349126 0.231515 2.52676 130 110 86
2.37505e-005 0.231745 2.52735 126 99 88
0.0349601 0.231975 2.52794 99 84 79
0.068403 0.22654 2.4666 110 93 73
0.100243 0.221369 2.40823 167 146 127
0.132521 0.219848 2.38981 159 139 112
0.16552 0.220066 2.39036 157 141 107
0.198518 0.220283 2.39092 151 135 112
0.231517 0.220501 2.39148 141 106 84
0.264515 0.220718 2.39204 157 128 110
0.302111 0.224432 2.43061 158 138 113
0.338332 0.226495 2.45119 145 127 89
0.36916 0.224874 2.43174 150 129 108
0.402684 0.225095 2.4323 152 131 100
0.432858 0.223561 2.41384 138 113 93
0.462506 0.222023 2.39537 115 67 65
0.499381 0.223999 2.41497 118 82 68
0.532643 0.224218 2.41553 101 69 44
0.565904 0.224438 2.41609 103 88 69
0.603831 0.226421 2.4357 90 75 68
0.65292 0.232217 2.49643 53 39 36
0.68181 0.230583 2.47695 81 73 60
0.710147 0.228946 2.45746 84 72 56
0.749966 0.231032 2.4781 68 51 43
0.784045 0.231257 2.47867 94 71 63
0.811551 0.229614 2.45917 78 67 49
0.845352 0.229837 2.45974 87 76 70
0.865258 0.226411 2.42114 105 89 73
0.891487 0.22485 2.40261 97 83 72
0.924486 0.225068 2.40317 78 64 55
0.949926 0.223502 2.38463 100 88 66
0.990483 0.225503 2.40428 92 72 61
1.02348 0.22572 2.40484 102 85 69
1.03188 0.220668 2.34907 115 94 73
1.05594 0.219184 2.3315 111 92 78
1.06363 0.214492 2.27972 122 94 83
1.07854 0.211489 2.24602 126 107 92
1.08558 0.207157 2.19822 130 111 78
1.10756 0.205843 2.18262 131 109 98
1.11395 0.20178 2.1378 127 107 82
-1.17805 0.217524 2.11346 148 122 99
-1.15672 0.219241 2.1288 136 119 101
-1.13498 0.22096 2.14413 147 129 107
-1.10508 0.221157 2.14464 149 126 108
-1.08321 0.222982 2.16098 152 126 113
-1.0609 0.22481 2.17732 154 128 103
-1.03815 0.22664 2.19367 153 128 106
-1.01496 0.228474 2.21004 150 130 105
-0.984172 0.228677 2.21055 155 128 111
-0.953388 0.22888 2.21107 149 122 113
-0.929726 0.230822 2.22844 142 127 88
-0.898707 0.231026 2.22896 148 130 108
-0.867688 0.231231 2.22949 140 119 100
-0.843085 0.233179 2.24687 141 117 113
-0.818011 0.23513 2.26426 144 125 108
-0.786521 0.235337 2.26479 144 122 98
-0.760741 0.237293 2.28219 145 118 107
-0.729016 0.237502 2.28273 143 116 107
-0.708386 0.24142 2.31901 140 118 107
-0.676163 0.241633 2.31955 145 123 109
-0.64394 0.241845 2.32009 135 120 101
-0.616516 0.243917 2.33852 137 118 101
-0.584044 0.244131 2.33907 142 117 97
-0.556112 0.246311 2.35851 141 115 100
-0.527654 0.248494 2.37795 141 119 95
-0.502685 0.252651 2.4163 143 117 90
-0.469161 0.252872 2.41686 140 118 97
-0.435636 0.253093 2.41743 146 118 104
-0.402112 0.253314 2.41799 141 114 93
-0.368587 0.253535 2.41856 141 117 89
-0.337905 0.255838 2.43904 137 115 94
-0.304104 0.256061 2.43961 141 115 102
-0.274879 0.260455 2.48003 133 106 87
-0.240524 0.260682 2.4806 139 113 96
-0.20799 0.263102 2.50211 136 110 95
-0.173345 0.263331 2.5027 133 117 94
-0.138699 0.263559 2.50328 128 110 88
-0.105003 0.265987 2.52481 130 107 89
-0.0700662 0.266217 2.5254 124 101 83
-0.0351298 0.266448 2.52599 117 95 84
-0.000193502 0.266678 2.52658 120 97 83
0.0349562 0.269116 2.54813 100 88 76
0.067711 0.258511 2.44588 139 116 98
0.0985984 0.250626 2.36955 162 147 124
0.129422 0.246942 2.33314 163 136 117
0.161645 0.247154 2.33368 167 152 129
0.19244 0.245466 2.31624 155 129 106
0.224414 0.245677 2.31678 148 135 103
0.254461 0.243984 2.29932 152 136 103
0.288362 0.246098 2.31786 160 144 111
0.325187 0.250123 2.35441 153 132 113
0.35766 0.250337 2.35496 113 93 82
0.393218 0.252567 2.37452 153 131 108
0.425954 0.252783 2.37507 154 133 112
0.458689 0.252999 2.37562 155 131 103
0.48755 0.251193 2.35715 157 136 109
0.520022 0.251407 2.35769 157 137 112
0.548326 0.249702 2.34021 146 131 100
0.576131 0.247995 2.32271 145 115 104
0.61744 0.252049 2.35934 85 60 53
0.660292 0.256323 2.39799 91 78 70
0.698744 0.258573 2.4176 76 59 51
0.714857 0.252691 2.36098 82 68 57
0.765267 0.259011 2.41872 93 81 67
0.786044 0.255156 2.38115 87 73 60
0.81878 0.255372 2.3817 82 70 54
0.851516 0.255588 2.38225 92 78 75
0.870559 0.251826 2.34564 71 59 59
0.895873 0.250102 2.3281 97 78 74
0.927847 0.250313 2.32864 103 90 84
0.952413 0.248584 2.31109 87 68 62
0.984138 0.248793 2.31163 94 91 74
1.00093 0.245331 2.27798 94 78 62
1.03218 0.245537 2.2785 112 89 81
1.06344 0.245743 2.27903 120 98 87
1.07835 0.24227 2.24535 120 99 80
1.08539 0.237274 2.19756 125 102 68
1.09975 0.234112 2.16686 120 101 86
1.11377 0.231052 2.13715 131 103 82
-1.1866 0.248732 2.12764 142 125 109
-1.15691 0.248928 2.12814 139 125 98
-1.13516 0.250855 2.14348 144 127 111
-1.11352 0.2529 2.15981 147 124 116
-1.0834 0.253098 2.16031 142 120 107
-1.06109 0.255148 2.17665 145 128 100
-1.04593 0.259052 2.20884 147 121 104
-1.00778 0.257401 2.19352 146 118 106
-0.991958 0.261429 2.22671 137 125 101
-0.95358 0.259661 2.2104 147 121 106
-0.929919 0.261838 2.22776 142 120 106
-0.905788 0.264018 2.24513 145 125 100
-0.874534 0.264224 2.24565 141 120 103
-0.849697 0.266409 2.26304 143 120 102
-0.824389 0.268597 2.28042 142 123 106
-0.792664 0.268806 2.28096 142 121 102
-0.760939 0.269015 2.2815 142 117 97
-0.74081 0.273428 2.31775 143 118 96
-0.708587 0.27364 2.3183 143 117 100
-0.681663 0.275958 2.33671 66 56 47
-0.575954 0.245623 2.07808 127 118 109
-0.621787 0.278612 2.35668 97 81 65
-0.589051 0.278827 2.35723 136 111 104
-0.565401 0.283501 2.39555 143 118 96
-0.532139 0.28372 2.39611 139 121 101
-0.502894 0.286172 2.41556 138 115 97
-0.469369 0.286393 2.41613 137 113 89
-0.439519 0.288968 2.43658 135 118 92
-0.405718 0.28919 2.43715 137 112 92
-0.371916 0.289413 2.43772 140 113 104
-0.338115 0.289636 2.43829 136 114 93
-0.306881 0.29222 2.45878 134 113 96
-0.275093 0.294807 2.47927 132 106 93
-0.242851 0.297516 2.50077 128 110 90
-0.208206 0.297745 2.50135 130 112 88
-0.175092 0.30046 2.52286 127 110 92
-0.140156 0.30069 2.52345 129 108 91
-0.10522 0.30092 2.52404 131 102 88
-0.0702835 0.30115 2.52463 126 99 88
-0.0353471 0.301381 2.52522 115 96 79
-0.000489874 0.304107 2.54676 111 88 70
0.0349588 0.306956 2.56931 103 88 69
0.0684575 0.297071 2.48506 69 44 37
0.0969978 0.27895 2.33189 158 137 110
0.127364 0.274869 2.29648 169 110 112
0.159089 0.275079 2.29702 168 113 106
0.189466 0.273258 2.28057 133 121 97
0.220956 0.273465 2.2811 170 149 118
0.248809 0.269606 2.24764 178 155 124
0.273908 0.263946 2.19917 156 135 114
0.306404 0.266062 2.21569 111 95 79
0.339342 0.268182 2.23221 120 106 93
0.378405 0.274503 2.28375 157 139 115
0.409894 0.27471 2.28428 161 137 109
0.441384 0.274918 2.28481 152 135 105
0.472874 0.275125 2.28535 147 130 104
0.500663 0.273287 2.26885 150 129 112
0.527981 0.271446 2.25235 160 139 112
0.563172 0.273699 2.26991 159 103 104
0.598833 0.275955 2.28747 159 94 102
0.625681 0.274111 2.27096 116 96 87
0.677019 0.282772 2.34167 82 68 59
0.698415 0.278633 2.30611 110 95 88
0.719444 0.274729 2.27254 85 73 59
0.767777 0.28123 2.32524 93 79 66
0.79359 0.27926 2.30772 87 72 65
0.819262 0.277408 2.29119 104 95 66
0.857041 0.279678 2.30879 88 79 62
0.875717 0.275759 2.27518 85 71 60
0.906971 0.275965 2.27571 78 66 54
0.93123 0.274104 2.25915 117 97 88
0.955019 0.272239 2.24259 88 75 69
0.971749 0.268545 2.21095 90 73 63
0.994842 0.266795 2.19537 106 95 75
1.02496 0.266993 2.19588 92 75 68
1.07046 0.271098 2.22858 105 85 60
1.0852 0.26739 2.1969 131 105 88
1.10719 0.265633 2.1813 128 101 80
1.12142 0.26216 2.15161 126 103 87
-1.18678 0.27842 2.12699 141 123 109
-1.16525 0.280553 2.14231 139 123 100
-1.14383 0.282818 2.15863 146 128 104
-1.11371 0.283016 2.15914 144 127 107
-1.08359 0.283215 2.15965 149 123 98
-1.06128 0.285486 2.17599 146 129 103
-1.05419 0.292036 2.22498 144 123 102
-1.02317 0.292241 2.22551 146 123 109
-0.99215 0.292445 2.22603 145 123 99
-0.961131 0.29265 2.22655 142 120 106
-0.937237 0.295064 2.24391 144 124 97
-0.905982 0.29527 2.24444 147 122 102
-0.881382 0.297688 2.26181 151 123 109
-0.843473 0.295682 2.24549 144 122 109
-0.824586 0.300319 2.27973 140 118 104
-0.799159 0.302876 2.29811 139 117 94
-0.767185 0.303087 2.29865 142 121 102
-0.74101 0.305648 2.31705 140 115 93
-0.714338 0.308213 2.33545 137 115 91
-0.676564 0.306073 2.31813 26 17 18
-0.572204 0.272648 2.06354 22 22 12
-0.62706 0.313832 2.37483 63 54 45
-0.589255 0.31156 2.35651 133 109 81
-0.565607 0.316759 2.39482 141 113 99
-0.536627 0.319472 2.41426 131 112 95
-0.503102 0.319693 2.41482 137 111 96
-0.469578 0.319914 2.41539 141 121 94
-0.439729 0.322766 2.43584 141 112 94
-0.405928 0.322988 2.43641 140 114 89
-0.372127 0.323211 2.43698 133 107 94
-0.338325 0.323434 2.43755 139 112 95
-0.307093 0.326295 2.45803 132 111 94
-0.273014 0.326519 2.4586 131 105 92
-0.243067 0.332159 2.5 127 104 86
-0.208421 0.332387 2.50059 132 103 85
-0.17531 0.335393 2.52209 127 103 93
-0.140373 0.335623 2.52268 120 97 81
-0.105437 0.335853 2.52327 127 102 82
-0.071163 0.338866 2.5448 123 97 84
-0.035936 0.339099 2.54539 116 95 90
-0.000708934 0.339331 2.54599 112 90 79
0.0347378 0.342485 2.56853 101 83 71
0.0697451 0.339795 2.54717 68 53 48
0.0961194 0.308776 2.31321 133 85 83
0.123663 0.297542 2.22789 182 127 133
0.152356 0.293484 2.19646 171 139 124
0.180163 0.28942 2.16501 140 118 97
0.210061 0.289617 2.16551 172 146 129
0.241669 0.291949 2.18201 156 142 113
0.271788 0.292147 2.18251 174 154 130
0.301908 0.292346 2.18302 170 149 118
0.329653 0.290405 2.16753 167 141 124
0.357117 0.288595 2.15303 162 135 116
0.386807 0.28879 2.15353 159 134 112
0.422385 0.29314 2.18505 159 137 116
0.455765 0.295483 2.20158 154 135 103
0.489588 0.29783 2.21811 155 136 104
0.516447 0.295883 2.2026 159 140 108
0.546788 0.296083 2.20311 154 138 104
0.577129 0.296283 2.20362 159 139 115
0.603102 0.294331 2.1881 158 131 102
0.620028 0.288336 2.1425 132 115 87
0.65853 0.292572 2.17308 101 85 70
0.698493 0.297083 2.20567 95 81 68
0.744922 0.303893 2.25533 98 81 71
0.770124 0.301803 2.2388 105 91 80
0.789515 0.297683 2.20721 95 74 73
0.819856 0.297883 2.20772 89 77 63
0.862476 0.302411 2.24036 92 79 70
0.880538 0.298283 2.20874 86 75 57
0.897714 0.294149 2.17711 102 82 83
0.927612 0.294346 2.17762 95 76 61
0.95751 0.294543 2.17812 95 75 66
0.987408 0.29474 2.17863 87 71 58
1.0033 0.290862 2.14897 95 82 66
1.02558 0.289018 2.13438 101 89 73
1.05485 0.289211 2.13488 101 84 76
1.09175 0.291445 2.15046 118 91 72
1.12123 0.29164 2.15096 120 102 90
-1.19533 0.310251 2.14115 147 126 95
-1.17413 0.312736 2.15746 146 118 117
-1.14401 0.312934 2.15797 145 123 112
-1.11389 0.313133 2.15848 151 122 108
-1.09181 0.315624 2.17481 140 118 104
-1.0771 0.320411 2.20696 142 116 101
-1.04631 0.320614 2.20748 146 129 113
-1.02336 0.323257 2.22482 145 122 106
-0.992343 0.323461 2.22535 136 116 105
-0.961324 0.323666 2.22587 139 117 96
-0.937431 0.326315 2.24322 142 115 98
-0.906177 0.326521 2.24375 146 124 110
-0.881578 0.329175 2.26112 140 118 105
-0.856509 0.331832 2.27849 139 117 104
-0.831332 0.334636 2.29687 141 119 105
-0.799358 0.334847 2.29741 140 116 88
-0.773434 0.337656 2.31579 139 118 97
-0.741211 0.337869 2.31634 134 117 97
-0.708988 0.338081 2.31688 137 117 90
-0.671461 0.33569 2.29956 22 17 11
-0.572382 0.301311 2.06291 27 23 24
-0.532505 0.295418 2.0217 64 53 49
-0.594267 0.347045 2.37466 125 104 83
-0.565814 0.350018 2.39408 134 113 92
-0.536835 0.352994 2.41352 134 104 93
-0.503311 0.353215 2.41408 133 107 90
-0.473741 0.356341 2.43453 130 106 94
-0.43994 0.356564 2.4351 134 107 96
-0.406138 0.356786 2.43567 134 109 89
-0.372337 0.357009 2.43624 135 112 98
-0.341383 0.360145 2.4567 131 109 88
-0.304734 0.357455 2.43738 135 108 99
-0.277928 0.366573 2.49866 133 107 92
-0.243282 0.366801 2.49924 129 103 86
-0.208637 0.367029 2.49983 126 103 87
-0.175527 0.370326 2.52132 125 106 91
-0.140591 0.370556 2.52191 124 102 88
-0.106609 0.373858 2.54343 120 100 89
-0.071382 0.37409 2.54402 119 94 89
-0.036155 0.374322 2.54462 112 90 77
-0.000927994 0.374554 2.54521 111 88 72
0.0345169 0.378013 2.56775 107 84 78
0.0695261 0.375019 2.5464 62 54 41
0.099416 0.354402 2.40531 34 31 22
0.124346 0.330821 2.24418 140 113 102
0.151123 0.32147 2.17982 154 136 114
0.177603 0.314902 2.1344 160 146 119
0.205692 0.312888 2.11991 165 142 111
0.231763 0.308663 2.09044 157 138 121
0.264242 0.313274 2.1209 104 81 73
0.295534 0.315679 2.13638 153 135 111
0.325017 0.315873 2.13688 165 148 118
0.3545 0.316068 2.13738 170 150 123
0.378702 0.31183 2.10787 170 152 130
0.404922 0.309804 2.09336 157 138 121
0.430931 0.307923 2.07984 141 96 90
0.459597 0.308112 2.08032 100 50 43
0.505384 0.319261 2.15488 83 39 38
0.531396 0.317233 2.14036 149 97 83
0.564765 0.319652 2.15588 96 28 27
0.590362 0.317622 2.14136 134 34 36
0.611242 0.313362 2.1118 159 137 116
0.635801 0.311326 2.09725 150 127 113
0.660259 0.309435 2.0837 135 120 97
0.693521 0.311706 2.09823 91 73 59
0.748038 0.323058 2.17393 120 106 97
0.767258 0.318788 2.14434 121 100 97
0.785647 0.314512 2.11474 97 84 78
0.814715 0.314703 2.11523 89 78 56
0.855706 0.319371 2.14583 96 82 69
0.879019 0.317326 2.13127 120 102 100
0.901917 0.315278 2.1167 81 66 63
0.930985 0.31547 2.11719 104 85 89
0.94692 0.311324 2.08854 96 81 74
0.98212 0.313608 2.10309 91 70 65
1.01098 0.313798 2.10358 93 74 70
1.03292 0.311891 2.08999 107 89 79
1.05447 0.309981 2.07639 93 75 65
1.09025 0.312269 2.09096 113 92 87
-1.19552 0.340146 2.14049 142 124 110
-1.17432 0.342852 2.1568 149 122 103
-1.1442 0.343051 2.15731 138 126 104
-1.11408 0.343249 2.15782 149 124 104
-1.10004 0.348475 2.18995 151 124 107
-1.07729 0.351192 2.20629 139 121 99
-1.05457 0.354069 2.22362 139 118 113
-1.02356 0.354273 2.22414 148 122 95
-0.992536 0.354477 2.22466 146 123 105
-0.96888 0.35736 2.24201 132 115 95
-0.937626 0.357566 2.24254 138 110 98
-0.913264 0.360454 2.25989 139 114 92
-0.881774 0.360662 2.26043 141 115 98
-0.856706 0.363554 2.2778 141 111 100
-0.838081 0.369452 2.314 128 109 95
-0.805858 0.369664 2.31454 132 113 98
-0.773635 0.369876 2.31508 136 112 100
-0.741411 0.370089 2.31563 136 110 95
-0.714742 0.373152 2.33402 132 104 92
-0.682269 0.373366 2.33457 39 27 31
-0.576492 0.332194 2.07617 24 17 24
-0.555643 0.337144 2.10643 49 39 27
-0.594472 0.380041 2.37393 119 97 73
-0.566021 0.383276 2.39335 113 94 79
-0.537044 0.386515 2.41278 115 99 84
-0.503519 0.386736 2.41335 113 95 83
-0.473951 0.390139 2.43378 103 86 70
-0.44015 0.390362 2.43435 97 81 65
-0.409751 0.39377 2.4548 123 101 88
-0.372547 0.390807 2.43549 133 106 87
-0.341595 0.39422 2.45595 124 105 88
-0.310088 0.397636 2.47642 126 104 83
-0.275733 0.397862 2.477 125 102 96
-0.243498 0.401443 2.49848 120 96 84
-0.210681 0.405028 2.51997 123 100 92
-0.175744 0.405259 2.52056 120 98 87
-0.140808 0.405489 2.52115 122 99 83
-0.105872 0.405719 2.52173 122 98 74
-0.0716011 0.409314 2.54325 113 90 84
-0.0363741 0.409546 2.54384 111 89 76
-0.00114705 0.409778 2.54444 110 88 77
0.0342959 0.413541 2.56696 97 86 66
0.069307 0.410242 2.54562 55 43 31
0.0984967 0.384607 2.38562 43 39 28
0.123281 0.359104 2.22654 128 116 102
0.147937 0.344187 2.13325 166 151 130
0.175049 0.339553 2.1038 172 157 128
0.201424 0.335075 2.07534 169 151 115
0.228596 0.333008 2.06184 162 142 118
0.255381 0.330939 2.04833 147 132 109
0.283659 0.331125 2.04881 95 77 73
0.314013 0.333571 2.06328 140 122 100
0.342485 0.333759 2.06376 151 134 104
0.370957 0.333947 2.06424 168 147 130
0.39943 0.334134 2.06472 167 151 117
0.422201 0.329793 2.03719 178 153 131
0.447242 0.327712 2.02366 165 144 113
0.472126 0.32579 2.01112 109 79 68
0.503024 0.32808 2.0246 131 74 63
0.538166 0.332803 2.0531 112 64 52
0.574083 0.337531 2.08162 146 111 91
0.602749 0.33772 2.08211 157 131 106
0.623001 0.333362 2.05454 163 141 120
0.642478 0.328999 2.02695 153 133 109
0.666103 0.327069 2.01439 142 128 99
0.69826 0.329366 2.02789 94 79 60
0.751061 0.340943 2.09856 105 92 76
0.764394 0.334294 2.05692 103 85 85
0.787303 0.332199 2.04335 101 84 77
0.837641 0.341514 2.10002 88 69 55
0.854986 0.337137 2.0724 109 97 73
0.877508 0.335039 2.05883 84 75 66
0.899642 0.332939 2.04525 114 89 84
0.921388 0.330837 2.03166 127 112 107
0.949279 0.331021 2.03213 101 83 69
0.970924 0.329078 2.01953 85 70 63
1.00506 0.331388 2.03307 111 92 85
1.03295 0.331572 2.03354 81 69 55
1.05406 0.329626 2.02094 94 83 65
-1.1957 0.370041 2.13983 143 114 98
-1.17451 0.372969 2.15614 139 121 107
-1.14439 0.373167 2.15665 140 109 104
-1.12253 0.376099 2.17296 136 121 100
-1.10023 0.379035 2.18928 133 107 110
-1.07748 0.381973 2.20561 144 124 97
-1.05477 0.385085 2.22293 140 117 101
-1.02375 0.385289 2.22346 139 112 93
-0.992729 0.385494 2.22398 147 118 110
-0.969074 0.388612 2.24132 129 102 91
-0.93782 0.388818 2.24185 127 104 96
-0.913459 0.391941 2.2592 119 96 78
-0.88197 0.392148 2.25973 121 102 96
-0.856903 0.395276 2.2771 110 97 80
-0.838282 0.401672 2.31329 105 77 73
-0.806059 0.401884 2.31383 89 73 57
-0.773835 0.402097 2.31437 88 70 68
-0.741612 0.402309 2.31492 84 66 64
-0.709388 0.402521 2.31546 68 53 48
-0.671859 0.399632 2.29816 27 23 11
-0.572739 0.358638 2.06165 20 13 20
-0.547812 0.361241 2.07602 24 22 23
-0.567072 0.394224 2.26504 59 43 44
-0.543962 0.400475 2.30031 64 50 39
-0.507927 0.397576 2.28298 62 48 37
-0.472603 0.394846 2.26664 52 43 28
-0.444477 0.397994 2.28405 64 49 42
-0.409623 0.395261 2.2677 63 45 41
-0.381027 0.398412 2.28512 100 83 55
-0.375885 0.42807 2.45463 120 96 84
-0.341806 0.428294 2.4552 125 102 88
-0.310302 0.431987 2.47567 130 101 93
-0.280771 0.439501 2.51802 125 99 86
-0.245834 0.439731 2.51861 123 100 86
-0.210898 0.439961 2.5192 116 94 81
-0.175961 0.440191 2.51979 119 97 76
-0.141025 0.440422 2.52038 112 94 72
-0.107047 0.444305 2.54188 113 92 75
-0.0718202 0.444537 2.54247 112 93 78
-0.0365931 0.444769 2.54307 109 93 77
-0.00136611 0.445002 2.54366 100 81 75
0.034289 0.452904 2.58811 101 77 73
0.0690879 0.445466 2.54485 57 39 39
0.0982915 0.417603 2.38489 55 39 40
0.127497 0.4049 2.31164 57 44 36
0.146778 0.371047 2.11764 156 143 111
0.172579 0.36355 2.07422 155 138 120
0.197349 0.356394 2.03278 147 131 105
0.222555 0.351855 2.0063 157 135 111
0.248579 0.349587 1.99279 168 146 123
0.276096 0.349768 1.99325 165 145 121
0.305688 0.352403 2.0077 163 146 118
0.335505 0.354865 2.02116 164 144 119
0.36111 0.352768 2.00864 160 143 117
0.388821 0.352951 2.00911 171 146 126
0.419177 0.355416 2.02257 177 150 133
0.438374 0.348572 1.98303 173 156 130
0.462706 0.346467 1.97049 170 155 126
0.486923 0.344536 1.95894 149 127 106
0.510549 0.342426 1.94638 127 113 87
0.547723 0.349293 1.98488 140 123 105
0.578786 0.351763 1.99836 148 131 105
0.606303 0.351945 1.99882 153 137 114
0.63382 0.352126 1.99929 103 50 42
0.652807 0.34772 1.9737 102 43 37
0.671416 0.343487 1.9491 121 68 60
0.689333 0.339248 1.92448 124 84 85
0.729844 0.346137 1.96304 98 78 71
0.771406 0.353033 2.00161 88 81 65
0.788594 0.348615 1.97599 90 79 59
0.832197 0.355873 2.01659 105 92 83
0.853958 0.353577 2.003 106 90 75
0.881475 0.353758 2.00346 124 106 106
0.908992 0.353939 2.00393 93 84 67
0.930445 0.351815 1.99134 98 81 63
0.951538 0.349689 1.97874 115 92 84
0.978695 0.349868 1.97919 98 82 69
1.00585 0.350047 1.97965 103 85 71
1.03979 0.352536 1.99318 106 91 70
-1.20481 0.402887 2.15497 133 125 106
-1.17469 0.403085 2.15547 141 112 104
-1.15306 0.406237 2.17178 135 118 111
-1.12272 0.406437 2.17229 148 125 109
-1.09238 0.406637 2.1728 136 116 92
-1.08598 0.415896 2.22173 127 107 96
-1.05496 0.416101 2.22225 134 111 103
-1.03178 0.419451 2.23958 135 108 99
-0.992922 0.41651 2.2233 66 55 49
-0.940672 0.407637 2.17536 73 63 51
-0.910331 0.407837 2.17587 70 56 53
-0.860926 0.399322 2.12988 59 50 41
-0.843381 0.405269 2.16106 65 54 48
-0.813261 0.405467 2.16157 68 60 58
-0.788967 0.408637 2.17792 75 56 49
-0.753022 0.405864 2.16259 57 50 44
-0.728285 0.409037 2.17895 60 54 40
-0.697944 0.409237 2.17946 58 52 40
-0.662664 0.40646 2.16411 55 48 38
-0.632545 0.406658 2.16462 47 43 40
-0.542186 0.407254 2.16614 51 37 36
-0.519731 0.413421 2.1984 64 49 44
-0.489169 0.413622 2.19892 60 50 41
-0.458606 0.413824 2.19943 59 51 38
-0.428044 0.414025 2.19995 57 49 36
-0.397481 0.414227 2.20047 57 48 41
-0.364194 0.411436 2.18509 69 60 55
-0.376097 0.462145 2.45388 116 97 90
-0.342018 0.462369 2.45445 120 103 85
-0.310516 0.466339 2.47491 122 100 86
-0.280988 0.474434 2.51725 122 100 89
-0.246051 0.474664 2.51784 120 96 84
-0.211115 0.474894 2.51843 113 100 84
-0.17772 0.479064 2.53991 120 94 81
-0.142493 0.479297 2.54051 113 90 76
-0.107266 0.479529 2.5411 118 96 82
-0.0720392 0.479761 2.5417 109 92 84
-0.0368122 0.479993 2.54229 110 89 68
-0.00167753 0.484363 2.5648 111 88 82
0.0340662 0.488736 2.58732 95 82 65
0.0683757 0.476736 2.52314 53 44 37
0.0980863 0.450598 2.38417 48 34 31
0.127298 0.436871 2.31094 45 36 31
0.151601 0.414836 2.19379 101 84 77
0.171297 0.389572 2.05962 146 125 108
0.195876 0.381834 2.0182 144 132 106
0.220891 0.37692 1.99172 158 138 114
0.243834 0.369924 1.95425 151 132 115
0.26908 0.367645 1.94172 170 154 128
0.29219 0.363095 1.91721 159 139 112
0.32076 0.365728 1.93064 163 144 114
0.351799 0.370635 1.95607 169 149 122
0.37879 0.370813 1.95652 161 145 111
0.405781 0.370991 1.95698 161 142 112
0.429948 0.368705 1.94444 175 157 133
0.453986 0.366606 1.93289 174 142 129
0.480631 0.366782 1.93334 171 103 102
0.503912 0.36449 1.92078 179 144 125
0.523834 0.360107 1.8972 160 140 116
0.546529 0.357999 1.88563 147 125 101
0.5761 0.360451 1.89808 145 128 108
0.613857 0.36766 1.93558 138 97 75
0.640502 0.367835 1.93603 116 41 38
0.658601 0.363252 1.91143 158 112 112
0.676364 0.358855 1.88782 134 64 64
0.693832 0.354644 1.8652 131 70 78
0.724081 0.3571 1.87767 126 102 90
0.749896 0.35727 1.8781 125 107 85
0.805306 0.371179 1.95077 97 84 65
0.827019 0.369065 1.93918 116 97 82
0.853664 0.36924 1.93963 105 91 78
0.88574 0.371709 1.95212 109 91 79
0.900891 0.367106 1.92747 103 84 77
0.927356 0.367281 1.92792 104 96 77
0.960245 0.369943 1.94143 128 109 102
0.974191 0.365332 1.91675 104 92 78
1.00675 0.367804 1.92926 92 81 61
-1.205 0.433003 2.1543 141 116 94
-1.18359 0.436375 2.1706 137 111 98
-1.15325 0.436575 2.17111 139 111 107
-1.13117 0.439952 2.18742 132 110 87
-1.10865 0.443331 2.20373 131 109 96
-1.08617 0.446913 2.22105 130 110 99
-1.05515 0.447117 2.22157 130 112 98
-1.02413 0.447321 2.22209 118 100 86
-0.943474 0.425438 2.1129 66 55 49
-0.907491 0.422646 2.09857 72 65 55
-0.871922 0.419851 2.08423 67 59 56
-0.842855 0.420043 2.08472 62 50 52
-0.819665 0.423225 2.10005 67 57 48
-0.79039 0.423417 2.10054 70 61 54
-0.761115 0.42361 2.10104 69 55 44
-0.726585 0.420809 2.08668 63 54 45
-0.702565 0.423996 2.10203 64 53 51
-0.66845 0.421192 2.08766 62 53 38
-0.648647 0.427381 2.11787 61 47 34
-0.610315 0.421575 2.08864 44 37 27
-0.577031 0.418765 2.07426 35 27 25
-0.548171 0.418956 2.07475 38 35 26
-0.530716 0.428158 2.11986 59 48 42
-0.497639 0.425347 2.10548 71 54 46
-0.475136 0.431553 2.13574 59 50 45
-0.442267 0.428741 2.12136 65 51 48
-0.409814 0.425926 2.10696 58 49 32
-0.377775 0.423108 2.09256 58 43 40
-0.353819 0.429324 2.12285 63 53 44
-0.376308 0.49622 2.45313 101 77 65
-0.345084 0.500464 2.47357 102 79 71
-0.313435 0.504913 2.49502 111 88 70
-0.281205 0.509367 2.51648 110 92 80
-0.246269 0.509597 2.51707 108 89 82
-0.213166 0.514056 2.53854 122 89 80
-0.176396 0.510057 2.51825 106 87 80
-0.142712 0.51452 2.53973 107 91 78
-0.107485 0.514752 2.54033 105 88 70
-0.0729616 0.519422 2.56282 107 91 75
-0.0370313 0.515217 2.54152 111 86 79
-0.00189848 0.519891 2.56402 98 87 69
0.0340631 0.529215 2.60944 94 83 65
0.0671757 0.503181 2.48053 46 37 30
0.0978811 0.483593 2.38344 52 42 40
0.12618 0.465201 2.29229 43 32 26
0.15349 0.451649 2.22503 47 38 31
0.172223 0.420876 2.07296 126 113 96
0.195703 0.409722 2.01758 149 137 111
0.217952 0.399166 1.96517 155 143 117
0.240659 0.391844 1.9287 162 144 120
0.26556 0.389383 1.91618 153 135 111
0.286698 0.382252 1.88068 179 164 133
0.310885 0.38019 1.87013 163 140 124
0.334592 0.377923 1.85858 161 143 119
0.360241 0.378092 1.85901 171 128 122
0.388329 0.380701 1.87144 130 101 93
0.414144 0.380871 1.87187 120 79 73
0.439959 0.381041 1.87231 175 116 120
0.468467 0.38345 1.88374 176 105 121
0.494434 0.383621 1.88418 174 99 106
0.520401 0.383792 1.88462 170 154 131
0.539781 0.379276 1.86204 173 152 125
0.558824 0.374958 1.84045 166 139 120
0.584168 0.375125 1.84088 154 140 111
0.609512 0.375292 1.84131 161 123 114
0.642375 0.379952 1.86377 150 94 97
0.664112 0.377874 1.85318 146 132 103
0.685545 0.375794 1.84259 156 139 121
0.702457 0.371462 1.82096 144 129 100
0.727496 0.371627 1.82138 133 120 85
0.757056 0.374043 1.83284 111 92 77
0.796267 0.380966 1.86637 118 102 102
0.827179 0.383593 1.87884 104 86 72
0.857971 0.386017 1.89032 98 82 59
0.883938 0.386188 1.89075 106 93 76
0.898861 0.381642 1.8681 112 96 83
0.92451 0.381811 1.86853 111 91 82
0.956253 0.384444 1.88102 98 83 76
0.982067 0.384614 1.88145 99 78 61
-1.21412 0.466513 2.16942 129 112 96
-1.19248 0.470109 2.18572 132 115 85
-1.15344 0.466913 2.17044 128 105 91
-1.13962 0.473909 2.20254 125 103 90
-1.10884 0.474112 2.20306 123 101 103
-1.09468 0.481542 2.23715 120 103 85
-1.06342 0.481748 2.23768 126 106 105
-1.03217 0.481954 2.2382 70 63 47
-0.904742 0.436401 2.02629 73 53 55
-0.870395 0.433607 2.01293 70 50 52
-0.848185 0.436774 2.02724 67 52 49
-0.825587 0.439944 2.04156 69 62 54
-0.791628 0.437147 2.02819 56 55 51
-0.763349 0.437333 2.02867 67 51 52
-0.735071 0.437519 2.02915 38 33 27
-0.682964 0.42319 1.96232 54 45 38
-0.660002 0.426146 1.97565 42 37 31
-0.654753 0.44107 2.04444 71 56 49
-0.626281 0.441257 2.04492 61 52 37
-0.589548 0.435457 2.01766 58 48 39
-0.561463 0.435642 2.01814 64 51 43
-0.505293 0.436013 2.01909 49 40 31
-0.480564 0.439197 2.03344 134 120 119
-0.455447 0.442383 2.0478 61 51 50
-0.418071 0.433567 2.00662 83 73 72
-0.392954 0.436753 2.02098 73 62 58
-0.36487 0.436938 2.02145 41 31 30
-0.341558 0.443134 2.04973 72 57 54
-0.379653 0.534589 2.47224 88 69 63
-0.348296 0.539327 2.49368 93 72 55
-0.310943 0.535042 2.4734 105 84 79
-0.281422 0.544299 2.51571 105 88 72
-0.246486 0.54453 2.5163 118 88 77
-0.213385 0.549279 2.53777 104 86 74
-0.178158 0.549511 2.53836 116 91 86
-0.142931 0.549744 2.53896 104 91 74
-0.107704 0.549976 2.53955 110 88 74
-0.0731825 0.55495 2.56204 101 82 65
-0.0372503 0.55044 2.54074 103 82 77
-0.00211943 0.555419 2.56324 101 82 68
0.0338383 0.565366 2.60865 83 74 67
0.066962 0.537533 2.47977 51 42 35
0.0976759 0.516589 2.38272 46 33 42
0.126901 0.500813 2.30953 47 36 32
0.153299 0.48243 2.22435 43 29 29
0.176687 0.462301 2.13115 45 35 26
0.194327 0.434797 2.004 141 128 111
0.215124 0.420909 1.93964 171 143 131
0.237488 0.413072 1.90318 179 145 135
0.262178 0.410646 1.89164 175 158 130
0.28491 0.405832 1.86913 163 143 116
0.307005 0.401015 1.8466 172 149 118
0.328639 0.39641 1.82506 165 146 114
0.351747 0.394189 1.8145 169 143 130
0.374551 0.391966 1.80393 175 125 124
0.401826 0.394519 1.81534 182 130 134
0.424325 0.392294 1.80477 170 131 114
0.449213 0.392458 1.80519 132 73 79
0.476945 0.395014 1.81661 118 34 34
0.507979 0.399966 1.83904 154 95 81
0.533323 0.400133 1.83947 170 150 123
0.552064 0.395509 1.81788 172 154 134
0.573649 0.393278 1.80729 178 158 123
0.59493 0.391045 1.7967 165 146 116
0.619665 0.391208 1.79711 156 137 104
0.6444 0.391371 1.79753 155 139 105
0.669136 0.391534 1.79795 152 136 102
0.689655 0.389295 1.78734 166 145 118
0.710268 0.387273 1.77773 161 143 121
0.730603 0.38525 1.76812 146 130 104
0.763404 0.389781 1.78859 123 114 85
0.792811 0.392349 1.80003 111 90 71
0.827499 0.397325 1.82252 98 82 66
0.857667 0.399897 1.83398 119 99 90
0.877578 0.397655 1.82337 105 91 88
0.897184 0.39541 1.81275 98 84 71
0.927657 0.397985 1.82421 96 85 81
0.958434 0.400561 1.83568 107 93 82
-1.22324 0.500467 2.18453 132 114 94
-1.19267 0.500668 2.18504 129 108 89
-1.16211 0.500869 2.18556 130 118 80
-1.13981 0.50469 2.20186 133 103 105
-1.10903 0.504893 2.20238 127 106 75
-1.08656 0.508945 2.21968 126 101 105
-1.06362 0.513 2.23699 116 99 79
-0.868679 0.446316 1.94565 66 60 48
-0.852794 0.452391 1.9718 71 65 43
-0.825277 0.452573 1.97226 73 60 51
-0.792483 0.449804 1.95988 66 56 46
-0.770242 0.452935 1.97319 67 59 48
-0.742725 0.453117 1.97366 70 67 50
-0.720309 0.456479 1.98797 32 29 24
-0.683134 0.450524 1.96172 31 27 26
-0.65142 0.447748 1.94932 53 49 37
-0.62846 0.450885 1.96264 74 63 61
-0.605139 0.454023 1.97598 74 56 56
-0.581754 0.457392 1.99031 59 52 46
-0.546448 0.451425 1.96403 98 91 83
-0.522587 0.454567 1.97737 199 186 180
-0.49507 0.454749 1.97783 147 133 132
-0.467553 0.45493 1.9783 111 98 108
-0.440036 0.455111 1.97876 100 89 95
-0.412519 0.455293 1.97923 102 98 87
-0.385001 0.455474 1.97969 106 94 104
-0.357484 0.455655 1.98015 70 63 57
-0.329967 0.455837 1.98062 61 54 46
-0.30245 0.456018 1.98108 85 66 62
-0.345512 0.569167 2.47206 88 74 65
-0.313866 0.574198 2.4935 99 75 65
-0.28164 0.579233 2.51494 103 81 68
-0.246703 0.579463 2.51553 104 85 81
-0.213605 0.584503 2.53699 101 87 74
-0.178377 0.584735 2.53759 103 89 78
-0.14315 0.584967 2.53818 110 83 76
-0.108935 0.590244 2.56066 105 87 75
-0.0734035 0.590479 2.56126 105 80 83
-0.0382745 0.595762 2.58375 105 86 72
-0.00243842 0.595998 2.58435 97 79 65
0.0336135 0.601517 2.60785 94 77 67
0.0697679 0.601755 2.60846 73 61 49
0.098175 0.553951 2.40091 35 26 21
0.126702 0.532785 2.30883 46 38 35
0.153107 0.513211 2.22367 46 38 35
0.177682 0.495233 2.14545 47 35 35
0.197944 0.471945 2.04427 100 84 71
0.214957 0.447717 1.93905 102 60 48
0.234441 0.433839 1.87866 126 40 39
0.257327 0.428708 1.85615 175 158 130
0.279724 0.423804 1.83463 170 152 130
0.30329 0.421434 1.82408 168 150 126
0.324621 0.416523 1.80254 179 158 129
0.347426 0.414147 1.79198 178 156 132
0.367895 0.40946 1.77142 179 162 134
0.390169 0.407311 1.76184 160 138 115
0.411935 0.404928 1.75126 167 149 125
0.436089 0.405087 1.75167 162 142 118
0.463087 0.407791 1.76307 177 150 131
0.484397 0.405406 1.75248 159 118 100
0.50855 0.405565 1.75289 165 133 122
0.536005 0.408272 1.7643 164 141 110
0.56345 0.410749 1.77472 167 151 117
0.581011 0.406042 1.75411 170 148 127
0.605165 0.406202 1.75452 161 140 119
0.629319 0.406361 1.75493 163 141 120
0.646087 0.401879 1.7353 149 135 100
0.673795 0.404358 1.74573 147 125 104
0.69781 0.404516 1.74613 152 132 108
0.71361 0.400028 1.72649 158 138 111
0.72928 0.395768 1.70784 154 136 100
0.75714 0.398248 1.71827 139 113 88
0.780754 0.398404 1.71866 107 85 74
0.822548 0.407634 1.75819 112 92 83
0.856782 0.412682 1.77967 125 108 88
0.876288 0.410514 1.77004 95 72 54
0.900594 0.410675 1.77045 98 79 73
