ply
format ascii 1.0
element vertex 1295
property float x
property float y
property float z
property uchar red
property uchar green
property uchar blue
end_header
1.10485 0.0400579 2.1513 128 101 94
-1.15375 0.043709 2.05405 161 146 141
-1.12509 0.0440193 2.05471 190 172 170
-1.09643 0.0443297 2.05538 174 160 159
-1.07507 0.0449317 2.06988 161 148 139
-1.05384 0.0455589 2.08537 185 167 163
-1.03218 0.0461907 2.10087 181 171 159
-1.01012 0.0468269 2.11638 166 147 141
-0.987634 0.0474676 2.1319 183 170 164
-0.951161 0.0474652 2.11775 177 169 166
-0.928263 0.0481104 2.13328 173 160 151
-0.90495 0.0487601 2.14882 186 167 163
-0.875057 0.0490838 2.14952 182 164 160
-0.851519 0.0497624 2.16606 182 161 158
-0.821404 0.0500885 2.16676 183 168 165
-0.797202 0.0507743 2.18333 177 161 148
-0.772556 0.0514649 2.1999 180 164 139
-0.741999 0.0517958 2.20061 179 162 155
-0.716689 0.0524936 2.21719 161 146 141
-0.691251 0.0532193 2.23478 180 163 156
-0.660237 0.0535551 2.2355 174 156 154
-0.634092 0.0542884 2.25311 175 156 152
-0.602843 0.0546268 2.25384 174 159 152
-0.575993 0.0553678 2.27146 155 135 124
-0.548672 0.0561138 2.28909 175 155 146
-0.516953 0.0564573 2.28983 155 136 129
-0.489143 0.0572351 2.30848 171 150 145
-0.460836 0.0580184 2.32713 169 151 151
-0.43203 0.058807 2.3458 166 143 137
-0.399563 0.0591585 2.34655 163 145 133
-0.367096 0.0595101 2.34731 147 129 125
-0.334629 0.0598616 2.34806 149 132 125
-0.302161 0.0602131 2.34882 140 121 117
-0.274269 0.0615216 2.38746 144 125 118
-0.241276 0.0618788 2.38823 123 109 100
-0.210044 0.0627202 2.40795 137 117 108
-0.176788 0.0630803 2.40873 129 104 99
-0.144768 0.0639302 2.42847 122 93 89
-0.112272 0.0648118 2.44922 120 96 92
-0.0784765 0.0651777 2.45001 124 106 82
-0.0446807 0.0655436 2.45079 133 115 91
-0.0110783 0.0664372 2.47157 143 118 98
0.0230776 0.0673367 2.49237 160 133 114
0.057427 0.0677086 2.49316 141 113 99
0.0924451 0.068644 2.51498 138 112 85
0.128045 0.0695856 2.5368 137 117 93
0.162975 0.0699638 2.53761 138 111 84
0.197906 0.070342 2.53843 143 111 90
0.234668 0.0712963 2.56028 137 110 89
0.269889 0.0716776 2.5611 140 113 94
0.30511 0.072059 2.56192 133 114 81
0.343163 0.0730537 2.5848 139 113 90
0.381825 0.074055 2.60769 132 107 87
0.417656 0.0744429 2.60853 139 114 92
0.453486 0.0748309 2.60936 137 110 80
0.489316 0.0752188 2.61019 135 106 90
0.525146 0.0756068 2.61103 130 102 78
0.560976 0.0759947 2.61186 126 98 86
0.601995 0.077048 2.63581 131 103 89
0.638144 0.0774394 2.63665 130 105 83
0.680118 0.0785031 2.66062 130 106 80
0.722728 0.0795736 2.68461 123 94 78
0.766256 0.0806805 2.70962 116 97 82
0.796298 0.0803702 2.68632 122 100 79
0.840491 0.0814843 2.71135 114 96 72
0.877608 0.0818862 2.71221 116 94 71
0.914725 0.0822881 2.71307 113 85 71
0.951842 0.08269 2.71393 117 91 68
0.96348 0.080962 2.64421 113 94 80
0.974314 0.0793047 2.57747 123 100 86
1.00131 0.0790408 2.5571 122 96 81
1.0111 0.0775047 2.49533 118 97 76
1.0284 0.0766326 2.45573 129 103 78
1.03722 0.0752185 2.39894 128 105 91
1.04537 0.0738499 2.34414 125 99 84
1.06121 0.0730944 2.30951 128 100 96
1.06848 0.0718224 2.25868 123 108 89
1.08363 0.0711389 2.22703 129 106 88
1.09035 0.0699668 2.18019 133 104 90
1.11229 0.0698071 2.1657 143 110 103
-1.15404 0.0723683 2.05329 153 138 131
-1.12538 0.0726786 2.05396 181 171 162
-1.10422 0.0734723 2.06844 170 158 162
-1.08319 0.0743048 2.08392 156 140 143
-1.06175 0.0751419 2.09941 184 167 160
-1.0399 0.0759834 2.11492 182 167 162
-1.01042 0.0763026 2.1156 159 147 135
-0.987937 0.0771509 2.13112 179 167 155
-0.958252 0.0774723 2.13181 171 160 154
-0.928566 0.0777937 2.1325 155 138 128
-0.912055 0.0792226 2.16387 160 141 134
-0.881941 0.0795486 2.16457 159 143 128
-0.851826 0.0798747 2.16527 145 131 122
-0.827847 0.0807795 2.18182 143 130 113
-0.803426 0.0816892 2.19838 149 131 127
-0.772868 0.08202 2.19909 134 113 108
-0.747782 0.0829368 2.21566 141 121 110
-0.717004 0.0832701 2.21638 116 102 89
-0.69691 0.0848587 2.25083 123 104 90
-0.665661 0.0851971 2.25156 122 101 84
-0.639284 0.0861682 2.26916 114 95 81
-0.612436 0.0871444 2.28678 129 110 96
-0.580716 0.0874879 2.28752 123 102 85
-0.562231 0.0898656 2.34192 132 110 99
-0.529763 0.0902172 2.34268 133 110 92
-0.497296 0.0905687 2.34343 139 116 100
-0.464829 0.0909202 2.34419 138 112 97
-0.435966 0.0919989 2.36385 143 120 106
-0.403236 0.0923533 2.36461 143 122 103
-0.373585 0.0934405 2.38429 147 124 93
-0.343408 0.0945335 2.40398 146 123 109
-0.310152 0.0948935 2.40476 146 120 103
-0.279186 0.095995 2.42447 148 123 101
-0.2478 0.0971413 2.44519 149 122 111
-0.214005 0.0975073 2.44597 144 123 106
-0.181789 0.0986626 2.46671 140 117 99
-0.147717 0.0990315 2.4675 143 120 102
-0.113644 0.0994004 2.4683 138 112 97
-0.0795714 0.0997693 2.46909 137 108 94
-0.0459718 0.10094 2.48986 136 109 92
-0.0116225 0.101312 2.49066 131 105 90
0.0228115 0.102531 2.51245 130 106 82
0.0574515 0.102906 2.51325 133 108 86
0.0920914 0.103281 2.51406 141 114 95
0.126731 0.103656 2.51486 138 110 89
0.162619 0.104892 2.53669 138 111 92
0.197549 0.10527 2.5375 139 113 90
0.234308 0.106515 2.55935 138 115 83
0.269529 0.106896 2.56016 140 114 91
0.307275 0.108192 2.58303 137 111 88
0.345629 0.109495 2.60591 138 112 97
0.38146 0.109882 2.60675 136 115 88
0.41729 0.11027 2.60758 131 109 88
0.45312 0.110658 2.60841 133 112 91
0.48895 0.111046 2.60924 134 107 90
0.52478 0.111434 2.61008 127 105 82
0.565478 0.112802 2.63401 126 107 67
0.606812 0.114177 2.65796 128 101 92
0.643278 0.114572 2.65881 127 101 84
0.685567 0.115958 2.68278 121 97 73
0.72876 0.117393 2.70778 118 97 70
0.765877 0.117795 2.70864 117 99 79
0.802994 0.118197 2.7095 119 94 72
0.840112 0.118599 2.71036 120 94 79
0.877229 0.119001 2.71123 114 91 73
0.914346 0.119403 2.71209 114 89 67
0.943063 0.118746 2.68877 120 95 73
0.963111 0.117108 2.64325 118 97 80
0.982263 0.1155 2.59872 114 97 71
1.00095 0.113969 2.55617 121 100 83
1.01075 0.111575 2.49443 123 95 84
1.02009 0.109297 2.43567 119 99 75
1.03689 0.107946 2.39808 123 96 87
1.04504 0.105817 2.34329 130 109 92
1.06088 0.104577 2.30867 128 102 87
1.07623 0.103372 2.27504 123 101 78
1.0755 0.100743 2.21006 130 103 94
1.09758 0.100337 2.19458 129 98 77
1.10425 0.0985941 2.14975 138 107 87
-1.15434 0.101027 2.05253 116 99 89
-1.13337 0.102013 2.06701 125 112 106
-1.11255 0.103051 2.08248 129 110 96
-1.08349 0.103365 2.08315 121 99 101
-1.06967 0.10514 2.11345 131 107 97
-1.05503 0.106923 2.14377 136 115 110
-1.02513 0.107247 2.14446 131 110 91
-1.00271 0.108357 2.16097 144 116 104
-0.972592 0.108683 2.16167 137 110 101
-0.949501 0.109799 2.17819 140 119 102
-0.919165 0.110128 2.1789 141 122 108
-0.89541 0.111252 2.19544 148 128 117
-0.864852 0.111583 2.19615 151 134 116
-0.834295 0.111913 2.19686 149 132 116
-0.822227 0.114752 2.2471 157 131 132
-0.790977 0.115091 2.24782 156 133 117
-0.759728 0.115429 2.24855 159 135 123
-0.728479 0.115767 2.24928 147 126 99
-0.702574 0.116969 2.26687 149 124 104
-0.6762 0.118175 2.28446 148 126 113
-0.649641 0.119438 2.30307 144 122 98
-0.622584 0.120706 2.32168 137 115 92
-0.590366 0.121054 2.32243 139 109 98
-0.567221 0.123309 2.35994 138 110 89
-0.534491 0.123663 2.3607 130 105 83
-0.501761 0.124018 2.36146 135 109 96
-0.469031 0.124372 2.36222 131 112 95
-0.439908 0.125717 2.38188 137 110 93
-0.406915 0.126074 2.38265 135 108 99
-0.377003 0.127427 2.40233 140 107 90
-0.346566 0.128786 2.42202 132 114 90
-0.313047 0.129149 2.4228 139 116 98
-0.281941 0.130569 2.44351 132 106 89
-0.250282 0.131995 2.46423 136 110 95
-0.21621 0.132364 2.46502 132 112 88
-0.182137 0.132733 2.46581 135 109 92
-0.149371 0.134171 2.48656 135 115 91
-0.115021 0.134543 2.48735 129 110 93
-0.0806719 0.134915 2.48815 136 111 91
-0.0463226 0.135286 2.48895 140 114 89
-0.0119732 0.135658 2.48975 140 108 97
0.0225394 0.138307 2.53252 137 104 97
0.05747 0.138685 2.53333 134 106 94
0.0924006 0.139063 2.53414 136 110 93
0.127331 0.139442 2.53495 133 106 97
0.163506 0.140971 2.55678 138 115 101
0.198727 0.141352 2.55759 134 110 84
0.233948 0.141733 2.55841 138 117 90
0.26917 0.142115 2.55923 137 111 98
0.306912 0.143715 2.58209 142 119 87
0.345264 0.145322 2.60496 135 107 85
0.381094 0.14571 2.6058 140 114 91
0.420515 0.147383 2.62969 135 103 90
0.456663 0.147774 2.63053 137 106 86
0.492812 0.148165 2.63137 133 105 91
0.52896 0.148557 2.63221 131 105 78
0.569973 0.150247 2.65615 122 98 74
0.606439 0.150642 2.657 127 101 74
0.648407 0.152342 2.68095 115 96 79
0.685192 0.15274 2.68181 90 76 63
0.71584 0.151826 2.65954 94 75 69
0.752306 0.152221 2.66039 111 92 75
0.795547 0.153935 2.68437 97 78 71
0.82524 0.153011 2.66208 65 45 36
0.854296 0.152079 2.63977 90 73 65
0.882716 0.151141 2.61745 82 64 64
0.918546 0.151529 2.61829 104 92 80
0.962742 0.153254 2.64229 109 90 75
0.973594 0.149742 2.5756 115 97 77
1.0006 0.148897 2.55525 117 94 80
1.0104 0.145645 2.49352 123 106 80
1.02771 0.143666 2.45396 118 100 80
1.03656 0.140674 2.39721 132 103 95
1.04471 0.137783 2.34244 125 102 86
1.06056 0.136059 2.30784 127 99 87
1.07592 0.134384 2.27422 128 110 90
1.07519 0.130855 2.20926 133 108 88
1.09727 0.130227 2.19378 132 105 94
1.11169 0.128759 2.16414 125 107 83
-1.17098 0.131482 2.08036 153 132 113
-1.15016 0.132727 2.09582 146 122 112
-1.12893 0.133977 2.1113 144 124 97
-1.09945 0.134296 2.11198 147 115 102
-1.08522 0.136491 2.14228 136 129 100
-1.05533 0.136814 2.14298 142 114 102
-1.04082 0.139148 2.17528 128 110 86
-1.01048 0.139476 2.17598 131 115 90
-0.980147 0.139805 2.17668 132 115 87
-0.956837 0.141145 2.19321 133 106 85
-0.933084 0.14249 2.20974 134 111 97
-0.902305 0.142824 2.21046 139 116 98
-0.878285 0.14424 2.228 139 116 100
-0.853795 0.145661 2.24554 144 120 96
-0.822546 0.145999 2.24627 136 113 95
-0.79735 0.147428 2.26384 142 116 101
-0.765865 0.147769 2.26457 143 118 98
-0.73438 0.14811 2.2653 142 116 99
-0.713905 0.150712 2.30073 140 118 97
-0.687349 0.152224 2.31933 145 118 107
-0.655131 0.152572 2.32008 146 120 97
-0.622913 0.152921 2.32083 131 111 87
-0.595361 0.154444 2.33945 149 126 110
-0.567555 0.156037 2.35907 141 118 100
-0.534825 0.156391 2.35983 138 120 96
-0.502095 0.156746 2.36059 136 114 93
-0.473238 0.15835 2.38024 145 120 100
-0.443855 0.15996 2.3999 142 115 94
-0.410599 0.16032 2.40068 138 117 96
-0.377343 0.160681 2.40145 143 118 98
-0.346908 0.162302 2.42113 141 119 98
-0.313389 0.162665 2.42191 142 115 94
-0.284703 0.165696 2.46253 138 116 95
-0.25063 0.166065 2.46332 138 115 101
-0.21842 0.167774 2.48405 133 111 90
-0.182485 0.166803 2.46491 139 114 92
-0.149721 0.168518 2.48565 133 111 90
-0.115372 0.168889 2.48644 136 109 90
-0.0810227 0.169261 2.48724 136 115 96
-0.0471759 0.171056 2.509 134 116 96
-0.0125359 0.171431 2.50981 136 110 95
0.0222614 0.174664 2.55257 132 106 91
0.0563747 0.170749 2.49043 154 138 122
0.0900956 0.169754 2.47124 139 122 102
0.124168 0.170123 2.47203 152 132 107
0.158241 0.170492 2.47283 141 120 93
0.198368 0.176571 2.55666 121 101 74
0.229944 0.174056 2.51544 134 117 91
0.266697 0.175882 2.53727 139 130 99
0.299224 0.174807 2.51705 132 113 96
0.336558 0.176639 2.5389 134 115 85
0.374474 0.178478 2.56075 127 110 84
0.416558 0.181925 2.60568 127 107 70
0.452388 0.182313 2.60651 125 104 85
0.488218 0.182701 2.60735 133 111 88
0.524049 0.183089 2.60818 119 98 79
0.564739 0.185094 2.6321 108 92 56
0.606067 0.187106 2.65603 108 85 69
0.631539 0.184253 2.61068 95 76 82
0.667369 0.184641 2.61151 91 72 57
0.691465 0.18191 2.56812 83 77 65
0.739029 0.185417 2.61317 67 53 44
0.77486 0.185805 2.61401 60 47 38
0.817779 0.187834 2.63798 69 61 40
0.83235 0.183435 2.57139 106 91 94
0.853463 0.180808 2.52993 101 89 73
0.880759 0.179675 2.50959 88 67 62
0.900566 0.177169 2.4701 91 81 69
0.957383 0.181933 2.53235 100 84 69
0.983807 0.180791 2.51199 113 97 74
1.01005 0.179715 2.49262 117 91 78
1.01941 0.175804 2.43391 117 92 85
1.03622 0.173402 2.39634 123 101 80
1.04439 0.16975 2.34159 118 100 78
1.06024 0.167541 2.307 124 104 93
1.0756 0.165395 2.2734 127 104 88
1.07489 0.160967 2.20846 131 105 92
1.08944 0.159017 2.17783 124 103 86
1.11139 0.158234 2.16336 131 104 97
-1.18819 0.162815 2.10915 142 124 114
-1.15871 0.163134 2.10983 145 115 107
-1.13727 0.164594 2.12531 151 129 116
-1.11542 0.166058 2.14079 145 122 104
-1.08553 0.166382 2.14149 145 117 106
-1.07146 0.169153 2.17377 150 127 111
-1.04882 0.170708 2.19027 149 127 104
-1.01079 0.16981 2.17518 144 122 98
-0.994955 0.1726 2.2075 150 122 98
-0.964177 0.172934 2.20821 150 125 105
-0.94063 0.17458 2.22573 142 123 109
-0.909616 0.174916 2.22645 150 129 110
-0.885363 0.17657 2.24399 141 119 96
-0.847588 0.175587 2.22789 149 124 104
-0.829156 0.17857 2.26227 142 120 106
-0.803727 0.180236 2.27984 153 126 109
-0.766187 0.179251 2.26373 146 124 103
-0.740287 0.180923 2.28131 144 125 111
-0.714232 0.182679 2.29989 146 120 97
-0.682263 0.183025 2.30063 145 124 105
-0.65546 0.184788 2.31923 137 116 97
-0.623242 0.185137 2.31998 146 124 101
-0.595692 0.186908 2.33859 139 116 100
-0.572554 0.190269 2.37707 147 118 104
-0.539561 0.190626 2.37783 144 117 100
-0.506568 0.190984 2.3786 145 118 97
-0.477451 0.192854 2.39825 146 114 99
-0.447807 0.19473 2.41791 142 122 97
-0.414288 0.195093 2.41869 143 119 95
-0.380769 0.195456 2.41947 135 114 85
-0.34725 0.195819 2.42025 139 115 105
-0.316427 0.197789 2.44093 140 118 94
-0.28505 0.199766 2.46163 141 115 98
-0.250978 0.200135 2.46242 135 110 90
-0.216905 0.200504 2.46321 132 109 95
-0.184421 0.202492 2.48394 135 113 102
-0.150072 0.202864 2.48474 135 109 96
-0.115723 0.203236 2.48553 134 113 92
-0.0821696 0.205318 2.50728 136 110 93
-0.0475296 0.205693 2.50809 134 108 83
-0.0131045 0.207785 2.52985 132 110 87
0.0218261 0.208163 2.53067 113 88 81
0.056024 0.205096 2.48953 135 122 114
0.089122 0.20218 2.45036 98 88 78
0.121158 0.199335 2.41216 147 133 107
0.153294 0.198128 2.39394 157 145 121
0.186287 0.198485 2.3947 161 137 109
0.220926 0.200416 2.41448 132 90 76
0.258101 0.20401 2.45428 89 26 35
0.291897 0.204376 2.45507 152 132 107
0.325692 0.204742 2.45585 151 132 102
0.359488 0.205108 2.45664 154 133 104
0.390167 0.203803 2.43738 142 118 106
0.423686 0.204166 2.43816 131 109 88
0.457205 0.204529 2.43894 141 116 86
0.498618 0.208251 2.47984 140 111 95
0.528467 0.206937 2.46056 119 92 81
0.57599 0.212444 2.52258 92 73 59
0.605614 0.211046 2.5023 94 83 79
0.634909 0.209727 2.48301 104 88 72
0.67991 0.21357 2.52499 62 44 40
0.71455 0.213945 2.5258 96 79 72
0.743011 0.212534 2.50549 74 59 54
0.78383 0.214695 2.52741 84 79 50
0.81847 0.21507 2.52821 83 78 59
0.839344 0.21194 2.48776 99 85 74
0.859433 0.208884 2.44829 75 65 64
0.886047 0.207617 2.42993 96 82 73
0.919303 0.207977 2.43071 81 69 55
0.945128 0.206702 2.41234 85 71 58
0.985815 0.208697 2.43225 100 86 75
1.01111 0.207416 2.41387 110 92 72
1.03589 0.206129 2.39547 126 103 89
1.04406 0.201716 2.34075 117 97 86
1.06775 0.2005 2.32333 111 93 73
1.06722 0.194928 2.25542 120 102 78
1.08239 0.192474 2.22382 118 99 82
1.09666 0.190009 2.1922 121 100 95
1.11882 0.189021 2.17774 128 106 82
-1.19695 0.193634 2.12314 141 122 105
-1.16726 0.193955 2.12383 144 119 115
-1.14562 0.195625 2.13931 151 127 89
-1.11573 0.195949 2.14 151 127 101
-1.09397 0.197715 2.15648 145 123 99
-1.07177 0.199487 2.17296 142 118 106
-1.04913 0.201263 2.18946 150 129 102
-1.01858 0.201594 2.19017 145 123 110
-0.99527 0.203377 2.20668 146 125 106
-0.971961 0.205256 2.22419 153 125 113
-0.940947 0.205592 2.22491 149 127 106
-0.909933 0.205927 2.22563 147 126 97
-0.878918 0.206263 2.22635 141 117 105
-0.854433 0.208155 2.24389 142 119 103
-0.829477 0.210052 2.26144 143 121 110
-0.797993 0.210393 2.26217 140 122 102
-0.766508 0.210734 2.2629 142 122 97
-0.746527 0.214299 2.2983 141 118 100
-0.714558 0.214645 2.29904 139 113 96
-0.688007 0.216655 2.31762 141 118 104
-0.655789 0.217004 2.31837 144 122 101
-0.628491 0.219022 2.33697 136 111 89
-0.596024 0.219373 2.33773 137 111 98
-0.568224 0.221492 2.35734 141 119 98
-0.539898 0.223617 2.37696 137 116 99
-0.511046 0.225747 2.3966 142 121 102
-0.481669 0.227883 2.41624 138 117 98
-0.44815 0.228246 2.41702 134 117 91
-0.41816 0.230485 2.43768 143 115 103
-0.381112 0.228972 2.41858 142 118 92
-0.347593 0.229335 2.41936 138 117 96
-0.316772 0.231583 2.44004 136 109 102
-0.285398 0.233836 2.46073 137 110 99
-0.251326 0.234205 2.46152 137 113 89
-0.219122 0.236467 2.48223 132 109 93
-0.186443 0.23883 2.50395 135 109 92
-0.150423 0.237211 2.48383 134 107 96
-0.118253 0.241578 2.52649 132 110 86
-0.0825233 0.239956 2.50636 135 108 99
-0.0478833 0.240331 2.50717 128 106 93
-0.0132433 0.240706 2.50797 129 100 92
0.0215421 0.245101 2.5507 93 84 69
0.0553272 0.237525 2.46864 125 107 85
0.0875623 0.232229 2.41051 157 139 115
0.119109 0.228934 2.37331 160 141 126
0.150722 0.227459 2.35508 162 145 117
0.183189 0.22781 2.35584 156 141 118
0.214099 0.226422 2.33859 160 138 115
0.246317 0.226771 2.33934 156 139 119
0.28059 0.228865 2.3581 152 135 105
0.317922 0.232905 2.39689 153 136 110
0.353611 0.235109 2.41669 145 128 102
0.386867 0.235469 2.41746 150 129 98
0.416901 0.233977 2.39919 156 134 113
0.44641 0.232478 2.38092 129 85 72
0.479141 0.232833 2.38168 156 123 104
0.507861 0.231325 2.36338 159 131 110
0.540328 0.231677 2.36414 140 121 104
0.568498 0.23026 2.34682 130 113 87
0.610061 0.23425 2.38472 68 54 51
0.652915 0.23835 2.42364 87 76 72
0.691496 0.240586 2.4435 93 76 60
0.713839 0.237192 2.4061 81 70 50
0.752683 0.23943 2.42596 88 77 59
0.785939 0.23979 2.42674 84 70 59
0.819195 0.24015 2.42751 84 66 54
0.845812 0.238621 2.40916 106 91 72
0.871902 0.237085 2.3908 95 82 73
0.904632 0.237439 2.39157 90 79 61
0.922897 0.234097 2.35506 87 74 55
0.947828 0.232645 2.33767 97 79 75
0.979797 0.232991 2.33842 88 71 61
1.01177 0.233337 2.33916 112 90 76
1.0357 0.231874 2.32175 126 101 81
1.0596 0.230506 2.30534 119 96 78
1.07497 0.227419 2.27176 122 100 86
1.08208 0.222807 2.22302 124 101 85
1.09636 0.2199 2.19141 135 101 76
1.11079 0.217186 2.1618 129 101 80
-1.19725 0.223317 2.12236 149 128 123
-1.17582 0.225192 2.13782 151 125 112
-1.14593 0.225516 2.13852 140 128 106
-1.11603 0.22584 2.13921 149 124 117
-1.09428 0.227828 2.15568 144 124 113
-1.07208 0.22982 2.17216 143 126 106
-1.04944 0.231818 2.18865 145 125 100
-1.03431 0.235596 2.22193 152 123 107
-1.00329 0.235932 2.22265 145 127 107
-0.964805 0.234487 2.20658 150 123 102
-0.941263 0.236603 2.22409 146 123 105
-0.910249 0.236939 2.22481 151 128 112
-0.886002 0.239064 2.24234 142 120 106
-0.854752 0.239402 2.24306 138 119 104
-0.836094 0.243328 2.27742 148 125 107
-0.804375 0.243671 2.27816 138 121 101
-0.778823 0.245919 2.29671 145 128 108
-0.740935 0.244358 2.27963 143 122 101
-0.714885 0.246612 2.29819 147 124 110
-0.688336 0.248871 2.31677 138 117 100
-0.656118 0.249219 2.31752 96 79 63
-0.628823 0.251486 2.33611 94 78 63
-0.601288 0.253866 2.35571 135 113 90
-0.573228 0.25625 2.37532 137 115 101
-0.540235 0.256608 2.37609 140 117 99
-0.51553 0.261037 2.41457 143 117 102
-0.482011 0.2614 2.41535 136 117 87
-0.448492 0.261763 2.41613 145 119 94
-0.414973 0.262126 2.41691 141 116 96
-0.384709 0.264644 2.43757 141 119 95
-0.350913 0.26501 2.43836 138 112 95
-0.317117 0.265376 2.43914 137 114 98
-0.288171 0.27007 2.47972 135 114 97
-0.253822 0.270442 2.48052 131 109 98
-0.219472 0.270814 2.48132 131 108 94
-0.186797 0.273468 2.50303 131 108 94
-0.152157 0.273843 2.50384 136 110 95
-0.11861 0.276506 2.52557 129 107 96
-0.082877 0.274593 2.50545 135 107 96
-0.0487485 0.277263 2.52719 122 101 82
-0.0138179 0.277641 2.528 115 98 68
0.0211825 0.28032 2.54977 104 85 78
0.0553225 0.273789 2.48771 98 79 72
0.0860447 0.261308 2.37168 154 137 121
0.116309 0.255611 2.31751 175 143 130
0.147221 0.253975 2.30027 165 108 114
0.178941 0.254318 2.30101 164 146 122
0.209193 0.252784 2.28475 169 148 127
0.237271 0.249364 2.25148 174 148 123
0.270223 0.251583 2.2692 155 139 116
0.301473 0.251921 2.26993 139 132 103
0.335131 0.254147 2.28767 87 77 75
0.36926 0.256379 2.30543 136 126 101
0.407078 0.260731 2.34223 151 131 104
0.435998 0.259073 2.32494 152 134 98
0.471515 0.261429 2.34372 147 131 105
0.499936 0.259765 2.32643 152 131 104
0.531905 0.260111 2.32717 159 140 108
0.555524 0.256534 2.2928 150 106 95
0.591299 0.258783 2.31059 142 76 77
0.623019 0.259126 2.31133 129 92 84
0.664823 0.263522 2.34822 94 82 68
0.697041 0.263871 2.34897 86 79 60
0.723719 0.262188 2.33163 85 78 60
0.767267 0.266603 2.36856 97 83 74
0.793695 0.264917 2.35121 90 76 65
0.819626 0.263227 2.33385 98 80 66
0.851595 0.263573 2.3346 101 81 70
0.883564 0.263919 2.33534 99 82 75
0.901854 0.260283 2.30084 78 66 52
0.933339 0.260624 2.30158 75 61 60
0.950594 0.257087 2.26805 105 91 90
0.974258 0.255482 2.25164 87 80 72
0.997898 0.253985 2.23623 91 76 71
1.0211 0.252484 2.2208 106 89 81
1.05901 0.254647 2.23765 114 89 85
1.08177 0.253141 2.22221 128 102 87
1.09605 0.249791 2.19062 123 107 82
1.11049 0.246661 2.16102 123 104 89
-1.19755 0.253001 2.12157 143 122 101
-1.16787 0.253322 2.12226 148 127 108
-1.14623 0.255407 2.13772 148 127 110
-1.1247 0.257614 2.15418 148 128 103
-1.09459 0.25794 2.15488 140 118 104
-1.08031 0.262042 2.18713 144 120 110
-1.05746 0.264263 2.20362 144 125 108
-1.0192 0.262704 2.18855 145 121 95
-1.00361 0.266944 2.22183 146 128 106
-0.972594 0.267279 2.22255 145 119 106
-0.94158 0.267615 2.22327 149 128 109
-0.91757 0.269972 2.24078 149 131 109
-0.886321 0.270311 2.24151 144 123 104
-0.861605 0.272675 2.25904 143 120 104
-0.843087 0.277194 2.29438 140 122 98
-0.804699 0.275389 2.27732 141 116 94
-0.779149 0.277886 2.29586 139 121 99
-0.753101 0.280389 2.31442 143 120 114
-0.720883 0.280737 2.31517 141 121 110
-0.688665 0.281086 2.31592 110 93 86
-0.582574 0.25053 2.06206 38 34 33
-0.553912 0.250841 2.06272 21 18 13
-0.601622 0.286593 2.35484 134 111 97
-0.578238 0.291534 2.39329 143 115 101
-0.544982 0.291894 2.39406 140 114 101
-0.515872 0.294553 2.41369 140 114 101
-0.482353 0.294916 2.41447 139 112 93
-0.452646 0.297705 2.4351 134 111 95
-0.41885 0.298071 2.43589 143 120 88
-0.385054 0.298437 2.43667 134 107 96
-0.351258 0.298803 2.43746 131 113 93
-0.320167 0.301607 2.45813 131 113 93
-0.288522 0.304417 2.47881 130 108 87
-0.256431 0.307355 2.5005 129 105 93
-0.221791 0.30773 2.50131 131 109 88
-0.188828 0.310678 2.52302 127 105 82
-0.153897 0.311056 2.52383 127 104 90
-0.118966 0.311434 2.52464 122 101 84
-0.0840358 0.311812 2.52546 126 104 91
-0.0491052 0.312191 2.52627 120 99 78
-0.0141746 0.312569 2.52708 109 91 89
0.0208928 0.318253 2.57078 109 91 79
0.0564185 0.318638 2.57161 93 74 59
0.0851241 0.291685 2.35185 138 119 104
0.113658 0.281138 2.26475 166 101 109
0.144907 0.281476 2.26547 149 86 94
0.174926 0.279704 2.24921 159 130 114
0.204474 0.277927 2.23295 169 143 120
0.233652 0.276269 2.21766 165 143 122
0.262387 0.274606 2.20237 177 157 133
0.292723 0.274935 2.20308 161 139 115
0.320794 0.273265 2.18777 166 138 117
0.348422 0.27159 2.17246 158 138 114
0.383731 0.27592 2.20519 163 141 117
0.423038 0.28239 2.25498 158 137 110
0.450705 0.280593 2.23867 154 132 108
0.481483 0.280926 2.23938 160 140 115
0.508668 0.279247 2.22406 162 141 110
0.539226 0.279577 2.22477 158 130 106
0.57382 0.281926 2.24153 163 130 113
0.60034 0.280239 2.22619 151 129 105
0.626418 0.278548 2.21083 121 113 76
0.676146 0.287228 2.27782 101 89 63
0.692013 0.281232 2.22832 103 77 86
0.74411 0.290061 2.29635 103 84 67
0.769894 0.288243 2.28 114 95 88
0.789271 0.284259 2.24654 98 80 76
0.82005 0.284592 2.24725 98 86 74
0.857235 0.287092 2.26507 86 75 69
0.875357 0.283217 2.23258 91 79 63
0.905914 0.283548 2.23329 99 85 82
0.936471 0.283879 2.234 84 73 53
0.953198 0.280112 2.20247 99 79 68
0.976176 0.278387 2.18705 82 68 55
1.00607 0.278711 2.18774 95 81 70
1.02886 0.277107 2.17331 96 80 57
1.06586 0.279358 2.18913 105 85 74
1.09575 0.279682 2.18982 120 102 78
1.11018 0.276137 2.16024 115 97 83
-1.20632 0.28465 2.13554 145 129 103
-1.17643 0.284974 2.13624 141 123 101
-1.14654 0.285298 2.13693 141 118 110
-1.12501 0.287726 2.15339 143 120 102
-1.0949 0.288052 2.15408 138 118 107
-1.08063 0.292597 2.18632 144 126 102
-1.06595 0.297284 2.21956 154 128 105
-1.03494 0.297619 2.22028 147 121 108
-1.00392 0.297955 2.221 147 125 111
-0.980388 0.300543 2.2385 139 118 99
-0.949138 0.300881 2.23923 148 126 102
-0.917889 0.301219 2.23995 150 123 112
-0.893411 0.303817 2.25747 147 126 107
-0.85539 0.301896 2.24141 141 118 104
-0.836742 0.306763 2.27574 136 117 100
-0.811445 0.309506 2.29427 144 121 103
-0.779476 0.309853 2.29502 140 111 107
-0.75343 0.312604 2.31357 142 121 102
-0.721212 0.312953 2.31432 140 113 106
-0.688994 0.313302 2.31506 119 101 89
-0.586893 0.281067 2.07516 30 26 23
-0.558037 0.281379 2.07583 25 15 13
-0.606895 0.321874 2.37281 131 105 88
-0.578577 0.324788 2.39241 136 114 101
-0.549733 0.327707 2.41202 135 114 93
-0.516214 0.32807 2.4128 133 109 99
-0.482695 0.328433 2.41358 135 109 92
-0.452991 0.331499 2.43421 132 111 90
-0.419195 0.331865 2.43499 132 108 96
-0.385399 0.33223 2.43578 132 111 90
-0.354587 0.335308 2.45644 130 108 85
-0.317808 0.332962 2.43735 133 106 89
-0.288872 0.338764 2.4779 131 104 87
-0.256784 0.341993 2.49959 132 112 85
-0.222144 0.342368 2.50039 125 104 85
-0.189184 0.345606 2.52209 132 110 99
-0.154254 0.345984 2.52291 126 106 97
-0.119323 0.346362 2.52372 122 100 89
-0.0852005 0.349613 2.54545 120 102 92
-0.0499793 0.349994 2.54627 122 96 79
-0.0145313 0.347497 2.52615 111 95 79
0.0205301 0.353776 2.56984 106 82 70
0.0556844 0.351138 2.54872 89 70 66
0.088356 0.340104 2.46673 47 36 32
0.113339 0.312385 2.26392 124 85 88
0.140734 0.303626 2.19875 149 132 104
0.167675 0.297469 2.15252 170 156 130
0.196069 0.295718 2.13822 157 139 115
0.224048 0.293963 2.12392 139 124 95
0.255025 0.296357 2.13959 133 115 101
0.28833 0.300834 2.17028 159 143 118
0.318223 0.301157 2.17097 167 150 120
0.343458 0.297314 2.14165 169 152 122
0.370399 0.295548 2.12732 169 149 124
0.394181 0.291689 2.09796 159 138 109
0.425988 0.294092 2.11365 137 106 77
0.464529 0.300683 2.15942 140 103 77
0.497582 0.303099 2.17514 153 127 110
0.527475 0.303423 2.17583 130 112 92
0.557368 0.303747 2.17653 146 125 108
0.587261 0.30407 2.17722 117 48 41
0.604562 0.298083 2.13276 163 132 101
0.629427 0.296294 2.11838 148 123 103
0.663102 0.298717 2.13412 115 100 79
0.692373 0.299034 2.1348 87 69 69
0.747452 0.310195 2.21285 107 97 88
0.766619 0.306012 2.18139 101 85 85
0.785627 0.302102 2.15192 96 83 67
0.820755 0.30454 2.16769 99 88 66
0.856299 0.306983 2.18348 90 72 58
0.87406 0.303059 2.15398 99 79 80
0.897265 0.301253 2.13956 98 87 83
0.920054 0.299441 2.12514 98 81 73
0.949117 0.299756 2.12581 90 80 71
0.97818 0.300071 2.12649 86 72 59
1.01435 0.30252 2.14228 89 76 59
1.0363 0.3007 2.12784 88 73 68
1.05083 0.296878 2.09926 106 88 68
1.0867 0.299188 2.11405 111 89 75
-1.20663 0.314541 2.13475 137 118 104
-1.18555 0.317186 2.15119 139 116 108
-1.15543 0.317512 2.15189 143 122 103
-1.12532 0.317838 2.15259 149 126 112
-1.10335 0.320493 2.16904 138 120 100
-1.08886 0.325483 2.20127 140 123 107
-1.05808 0.325816 2.20199 141 121 96
-1.03526 0.328631 2.21946 145 115 104
-1.01196 0.331451 2.23695 147 126 107
-0.980707 0.33179 2.23767 144 121 113
-0.949457 0.332128 2.2384 145 118 99
-0.918208 0.332466 2.23913 142 119 103
-0.893732 0.335299 2.25664 140 120 96
-0.862248 0.33564 2.25737 142 115 98
-0.84374 0.341127 2.29268 137 115 94
-0.811771 0.341473 2.29343 142 116 101
-0.785978 0.344471 2.31196 138 117 88
-0.753759 0.34482 2.31271 137 115 102
-0.727219 0.347826 2.33127 131 106 86
-0.694752 0.348178 2.33202 129 112 105
-0.583159 0.307849 2.06054 19 17 18
-0.554498 0.308159 2.0612 17 17 17
-0.607232 0.354865 2.37193 120 99 82
-0.578917 0.358041 2.39153 131 110 83
-0.550076 0.361224 2.41113 129 106 88
-0.516557 0.361586 2.41191 122 100 89
-0.487132 0.364926 2.43253 124 98 85
-0.453336 0.365292 2.43331 127 104 90
-0.41954 0.365658 2.4341 128 100 88
-0.385744 0.366024 2.43488 130 103 82
-0.354935 0.369378 2.45553 131 109 86
-0.318153 0.366756 2.43646 131 106 99
-0.289223 0.373111 2.47699 125 107 95
-0.257138 0.37663 2.49867 127 99 85
-0.222498 0.377005 2.49947 123 100 82
-0.189541 0.380534 2.52117 122 105 75
-0.15461 0.380912 2.52198 117 96 75
-0.11968 0.38129 2.52279 116 96 87
-0.0855602 0.384832 2.54452 112 93 76
-0.0503389 0.385213 2.54533 117 92 88
-0.0151177 0.385594 2.54615 107 89 75
0.0201673 0.389299 2.5689 103 86 78
0.055693 0.389684 2.56973 87 68 62
0.0873965 0.371147 2.44588 51 39 39
0.115329 0.351511 2.31497 117 92 95
0.139492 0.331533 2.18198 158 143 122
0.16629 0.324875 2.13676 172 151 132
0.19319 0.320635 2.10748 162 144 130
0.219359 0.316538 2.07919 162 146 120
0.24643 0.314716 2.06586 146 126 115
0.276682 0.317159 2.08052 94 76 62
0.307321 0.319605 2.09518 148 134 108
0.336176 0.319917 2.09585 154 134 110
0.365031 0.32023 2.09653 176 158 120
0.391327 0.3184 2.08318 178 157 128
0.414482 0.314421 2.05581 170 149 120
0.439809 0.312581 2.04245 162 136 113
0.464749 0.310736 2.02908 121 73 69
0.502638 0.31749 2.07182 96 33 28
0.545722 0.326718 2.13062 115 41 40
0.571005 0.324726 2.11626 125 50 54
0.600068 0.32504 2.11694 139 90 76
0.616509 0.318723 2.07446 156 140 114
0.640673 0.31687 2.06107 151 125 108
0.66445 0.315013 2.04767 145 127 89
0.697221 0.317483 2.06239 101 90 72
0.740148 0.324291 2.10524 115 103 89
0.769003 0.324604 2.10591 114 100 91
0.787314 0.320573 2.07843 102 87 82
0.815782 0.320881 2.07909 91 76 73
0.861632 0.327872 2.12302 88 70 66
0.884423 0.325853 2.1086 109 92 82
0.901185 0.321806 2.08108 122 105 95
0.929652 0.322114 2.08174 100 88 72
0.945251 0.318054 2.0542 101 80 75
0.97996 0.320544 2.06896 100 91 76
0.99459 0.316473 2.04139 89 73 60
1.02949 0.318966 2.05615 94 72 59
1.07199 0.323655 2.08505 100 77 69
-1.21597 0.346972 2.14969 148 127 96
-1.18585 0.347298 2.15039 146 128 104
-1.15574 0.347624 2.15109 144 122 98
-1.12562 0.34795 2.15179 141 124 98
-1.11181 0.353376 2.18399 142 125 97
-1.0976 0.358971 2.2172 138 115 99
-1.06659 0.359307 2.21792 143 122 93
-1.03557 0.359643 2.21864 146 117 103
-1.00456 0.359979 2.21936 138 125 91
-0.981026 0.363037 2.23685 142 121 102
-0.957023 0.3661 2.25434 138 121 93
-0.918527 0.363713 2.2383 135 112 96
-0.894054 0.366781 2.2558 138 114 102
-0.86911 0.369854 2.27332 138 110 106
-0.850743 0.375989 2.30961 128 110 90
-0.818525 0.376338 2.31036 121 109 85
-0.786307 0.376687 2.31111 114 98 82
-0.754088 0.377036 2.31186 109 97 73
-0.72755 0.380291 2.33041 107 92 71
-0.689652 0.377733 2.31336 91 79 65
-0.5918 0.341199 2.08848 21 20 25
-0.558627 0.339085 2.0743 25 15 23
-0.607569 0.387856 2.37106 77 62 57
-0.574576 0.388213 2.37182 67 52 47
-0.532747 0.3824 2.33494 62 49 40
-0.50028 0.382752 2.33569 59 51 32
-0.460439 0.377247 2.30075 61 50 32
-0.438974 0.386548 2.35605 61 52 37
-0.406244 0.386903 2.35681 70 55 48
-0.386089 0.399817 2.43399 123 100 84
-0.355283 0.403448 2.45463 121 104 78
-0.323923 0.407086 2.47529 125 101 77
-0.292132 0.410892 2.49695 128 105 87
-0.259759 0.414705 2.51862 120 99 94
-0.224828 0.415084 2.51943 122 98 88
-0.189898 0.415462 2.52024 119 96 88
-0.154967 0.41584 2.52106 119 97 84
-0.121141 0.419669 2.54276 117 91 78
-0.0859198 0.42005 2.54358 112 94 82
-0.0506986 0.420432 2.5444 103 85 75
-0.0154774 0.420813 2.54522 107 91 76
0.0198045 0.424822 2.56796 97 82 77
0.0553302 0.425207 2.56878 87 68 62
0.0864427 0.401636 2.42504 47 36 42
0.116597 0.389431 2.35003 45 32 24
0.137383 0.356514 2.15026 150 133 117
0.16383 0.349381 2.10604 169 154 131
0.189204 0.342565 2.06379 164 149 118
0.213487 0.335903 2.02251 156 145 117
0.241373 0.336205 2.02315 169 148 131
0.26926 0.336507 2.0238 165 144 123
0.297146 0.336809 2.02445 143 124 107
0.325032 0.337111 2.0251 158 136 112
0.352919 0.337413 2.02575 156 140 107
0.383362 0.340051 2.0404 170 152 128
0.408691 0.338017 2.02704 175 153 129
0.433843 0.336146 2.01467 172 146 121
0.455497 0.331928 1.98828 168 148 124
0.479735 0.330047 1.97589 130 108 94
0.513436 0.334699 2.00258 137 114 100
0.548123 0.339526 2.03028 152 133 100
0.572375 0.337646 2.01789 150 130 103
0.603896 0.34013 2.03158 156 137 104
0.627788 0.338246 2.01918 149 129 102
0.646826 0.334 1.99272 138 109 79
0.669805 0.332105 1.98031 136 114 93
0.696958 0.332399 1.98094 115 88 79
0.743328 0.34164 2.03482 94 80 69
0.771214 0.341942 2.03547 96 81 76
0.788563 0.337678 2.00897 95 83 61
0.832644 0.344916 2.05084 82 73 34
0.854873 0.342848 2.03741 118 101 91
0.877146 0.340945 2.02498 95 78 62
0.904853 0.341245 2.02562 102 85 65
0.926127 0.339167 2.01217 102 83 69
0.95364 0.339465 2.01281 117 96 93
0.974819 0.337551 2.00035 109 96 90
1.00866 0.340061 2.01408 105 85 74
1.03618 0.340359 2.01472 93 76 58
-1.21628 0.377085 2.14889 142 114 102
-1.18616 0.377411 2.14959 141 119 98
-1.16464 0.380503 2.16603 135 118 108
-1.15105 0.38637 2.19821 137 113 103
-1.11212 0.383931 2.18318 141 118 110
-1.09792 0.389983 2.21638 143 119 109
-1.0669 0.390319 2.2171 138 116 105
-1.03589 0.390655 2.21782 127 107 98
-1.01259 0.393945 2.23529 124 105 90
-0.981345 0.394284 2.23602 81 63 61
-0.950096 0.394622 2.23674 74 59 52
-0.904819 0.389036 2.20394 69 51 47
-0.880819 0.392334 2.22142 60 53 47
-0.843262 0.389702 2.20537 65 62 57
-0.831406 0.398945 2.25643 62 55 47
-0.787777 0.393341 2.22359 62 52 51
-0.750925 0.390702 2.20751 65 50 53
-0.720146 0.391035 2.20823 65 59 45
-0.684317 0.388563 2.19312 62 53 48
-0.658589 0.391702 2.20966 67 53 50
-0.558921 0.367938 2.07354 19 14 20
-0.562087 0.389887 2.19596 49 41 39
-0.539664 0.396028 2.22935 52 36 36
-0.500972 0.390549 2.19739 58 47 43
-0.473916 0.393701 2.21395 55 41 41
-0.443137 0.394034 2.21466 64 50 50
-0.415608 0.397371 2.23223 54 44 35
-0.378743 0.391872 2.20023 61 48 40
-0.392973 0.440688 2.47278 124 98 81
-0.358623 0.44106 2.47358 120 98 85
-0.327125 0.445155 2.49522 123 102 83
-0.295046 0.449255 2.51688 126 104 90
-0.260116 0.449633 2.5177 117 95 82
-0.225185 0.450012 2.51851 118 96 75
-0.190254 0.45039 2.51932 113 96 78
-0.156722 0.454506 2.54101 113 95 83
-0.121501 0.454887 2.54183 112 90 77
-0.0862795 0.455269 2.54265 108 89 75
-0.0510582 0.45565 2.54347 105 87 77
-0.015837 0.456032 2.54429 99 77 66
0.0194993 0.464278 2.58893 107 84 78
0.0549675 0.46073 2.56784 80 65 62
0.0861004 0.435152 2.42416 44 35 36
0.115471 0.41867 2.33122 47 36 32
0.143631 0.406464 2.26216 99 82 74
0.162456 0.375749 2.0903 148 128 104
0.187714 0.368516 2.04906 140 127 110
0.211909 0.36145 2.00879 150 125 105
0.235082 0.354552 1.96949 152 132 105
0.262235 0.354846 1.97012 175 153 129
0.285862 0.350634 1.94577 165 144 123
0.316541 0.355434 1.97138 170 149 122
0.343693 0.355728 1.97202 164 147 119
0.370846 0.356022 1.97265 156 137 120
0.400552 0.358667 1.98628 166 147 115
0.425152 0.35661 1.97391 167 143 117
0.452305 0.356904 1.97454 172 156 130
0.473511 0.352665 1.95013 179 151 130
0.497297 0.350778 1.93874 170 139 111
0.517299 0.346527 1.9143 136 121 98
0.546946 0.348992 1.92694 146 131 108
0.577219 0.351644 1.94059 151 125 108
0.615222 0.358668 1.97833 135 100 80
0.638524 0.356776 1.96692 105 27 27
0.657142 0.352509 1.94245 104 43 40
0.670884 0.346045 1.90592 99 32 39
0.692664 0.344136 1.89447 113 49 40
0.723142 0.346611 1.90713 105 72 63
0.763705 0.353663 1.94493 95 82 65
0.795193 0.356148 1.95761 91 73 69
0.827431 0.358821 1.97131 94 82 66
0.848807 0.356729 1.95886 103 85 75
0.881405 0.359405 1.97256 103 89 80
0.902421 0.357309 1.9601 113 99 86
0.929228 0.3576 1.96072 112 91 88
0.956035 0.35789 1.96135 83 69 56
0.976831 0.35597 1.94988 108 89 83
1.00965 0.35847 1.96259 105 89 73
-1.21658 0.407197 2.1481 135 118 92
-1.18647 0.407523 2.1488 139 113 88
-1.16495 0.410837 2.16522 135 117 95
-1.14299 0.414156 2.18166 130 112 88
-1.11243 0.414487 2.18237 134 116 102
-1.09823 0.420995 2.21556 129 112 96
-1.07541 0.424516 2.23301 134 112 101
-1.04416 0.424854 2.23374 136 115 98
-1.02064 0.428382 2.25121 75 58 48
-0.925295 0.401493 2.10907 64 55 46
-0.902215 0.404631 2.12454 68 63 57
-0.853958 0.396488 2.08086 60 56 47
-0.836861 0.40245 2.11112 63 52 46
-0.807383 0.402769 2.11181 69 59 50
-0.777905 0.403089 2.11249 57 58 44
-0.753788 0.406238 2.12799 61 57 46
-0.724102 0.40656 2.12868 64 55 46
-0.694417 0.406881 2.12937 68 60 41
-0.659994 0.404365 2.11523 67 57 58
-0.630516 0.404684 2.11592 52 45 37
-0.601038 0.405004 2.1166 50 40 41
-0.538175 0.402796 2.10313 61 50 46
-0.516304 0.40881 2.13351 67 53 44
-0.486618 0.409131 2.1342 63 52 46
-0.460217 0.412305 2.14974 69 59 50
-0.430324 0.412629 2.15044 60 54 42
-0.397562 0.410095 2.13627 63 56 40
-0.367876 0.410417 2.13696 60 49 43
-0.393324 0.475035 2.47187 103 82 79
-0.355979 0.471588 2.45283 101 85 70
-0.324625 0.475779 2.47347 110 93 73
-0.295403 0.484183 2.51596 114 98 75
-0.260472 0.484561 2.51677 120 99 78
-0.225542 0.48494 2.51758 118 94 84
-0.190611 0.485318 2.51839 124 100 90
-0.157082 0.489725 2.54008 115 93 80
-0.12186 0.490106 2.5409 113 90 82
-0.0874981 0.494715 2.5636 108 86 88
-0.0514179 0.490869 2.54254 113 94 80
-0.0164467 0.495484 2.56525 96 81 74
0.0191335 0.500106 2.58798 100 80 69
0.0546047 0.496253 2.5669 67 58 51
0.0851852 0.465004 2.40434 47 37 38
0.115142 0.450886 2.33037 47 36 42
0.142328 0.434427 2.24439 43 33 32
0.164312 0.410402 2.11946 131 118 99
0.186228 0.394079 2.03435 148 133 114
0.210235 0.386444 1.99409 163 149 122
0.233446 0.379377 1.95679 159 144 121
0.257257 0.374821 1.93246 158 136 113
0.280377 0.370257 1.90811 176 155 136
0.302958 0.36588 1.88474 156 137 120
0.327067 0.364023 1.87435 156 138 116
0.357072 0.368777 1.89794 170 138 125
0.385556 0.371396 1.91055 160 137 119
0.411851 0.371681 1.91116 163 141 118
0.438146 0.371966 1.91177 159 121 110
0.461587 0.369909 1.90037 173 96 112
0.490735 0.372535 1.91299 175 99 101
0.513845 0.370474 1.90158 183 155 134
0.533551 0.366259 1.87914 163 152 124
0.555844 0.364189 1.86772 163 142 111
0.581488 0.364467 1.86831 158 138 113
0.607133 0.364745 1.86891 159 125 113
0.640473 0.369535 1.89258 157 94 103
0.662603 0.367656 1.88214 151 107 96
0.68008 0.363416 1.85965 159 131 107
0.701435 0.361529 1.8492 158 133 113
0.718195 0.357474 1.82768 133 120 101
0.770287 0.37094 1.8956 105 94 64
0.801261 0.373586 1.90826 95 75 74
0.82739 0.373869 1.90887 113 97 81
0.858863 0.376521 1.92155 102 88 75
0.885158 0.376806 1.92216 128 103 96
0.905776 0.374718 1.91069 106 83 69
0.926063 0.372627 1.89922 97 85 59
0.952026 0.372908 1.89982 101 79 65
0.984163 0.375567 1.91251 121 97 85
-1.22593 0.440514 2.16301 132 107 87
-1.1956 0.440842 2.16372 133 118 99
-1.18246 0.447589 2.19587 131 112 105
-1.1433 0.444711 2.18085 128 110 90
-1.1209 0.448256 2.1973 127 106 101
-1.09855 0.452007 2.21474 126 105 102
-1.07573 0.455763 2.23218 126 111 92
-1.04448 0.456101 2.23291 129 109 98
-1.00551 0.453014 2.2169 70 48 60
-0.893437 0.416249 2.03638 73 58 53
-0.86497 0.416557 2.03705 65 52 44
-0.842282 0.419693 2.05151 69 55 44
-0.813621 0.420003 2.05217 78 58 57
-0.784959 0.420313 2.05284 62 49 43
-0.761496 0.423457 2.06732 68 56 40
-0.707617 0.409592 1.9989 57 47 37
-0.675263 0.407259 1.98672 61 50 54
-0.674931 0.424394 2.06933 70 56 53
-0.646076 0.424707 2.07 66 52 51
-0.617221 0.425019 2.07067 68 55 49
-0.58433 0.422486 2.0575 52 50 35
-0.555668 0.422796 2.05817 52 47 43
-0.527007 0.423106 2.05883 59 51 40
-0.494891 0.420564 2.04565 85 67 63
-0.472945 0.426581 2.07402 82 67 64
-0.441023 0.424037 2.06083 66 50 51
-0.412362 0.424348 2.0615 60 51 46
-0.3837 0.424658 2.06216 58 48 36
-0.357525 0.427831 2.0767 63 52 48
-0.390399 0.505289 2.45113 85 66 59
-0.362473 0.514054 2.49258 92 67 60
-0.327833 0.514429 2.49339 104 83 66
-0.295759 0.519111 2.51503 104 87 71
-0.260829 0.519489 2.51585 112 89 73
-0.227884 0.524181 2.53751 113 92 75
-0.190968 0.520246 2.51747 110 87 73
-0.157441 0.524943 2.53915 110 94 79
-0.123387 0.529853 2.56183 113 89 77
-0.0878608 0.530238 2.56266 102 84 72
-0.0523351 0.530622 2.56348 98 79 73
-0.0170626 0.535545 2.5862 106 87 83
0.0188213 0.540681 2.60992 98 79 72
0.0538862 0.527231 2.54406 43 32 26
0.0848457 0.498257 2.40346 45 36 31
0.114813 0.483101 2.32952 50 37 46
0.142993 0.468958 2.26051 42 32 30
0.167232 0.448993 2.16354 45 35 33
0.187137 0.425059 2.04756 146 130 107
0.207375 0.40856 1.96742 156 138 118
0.230345 0.401171 1.93113 169 158 136
0.255336 0.398759 1.91878 159 141 121
0.276731 0.39156 1.88345 154 134 110
0.300993 0.389552 1.87306 167 149 127
0.321078 0.382752 1.83969 162 145 115
0.344413 0.380734 1.82929 174 138 126
0.369601 0.381007 1.82987 179 124 129
0.394788 0.38128 1.83046 175 113 124
0.417515 0.379255 1.82004 173 112 120
0.447777 0.384124 1.84264 145 77 74
0.475883 0.386698 1.85424 154 72 76
0.501375 0.386974 1.85483 178 125 119
0.526867 0.38725 1.85542 176 155 134
0.549137 0.385221 1.84499 176 151 129
0.567727 0.380882 1.82353 176 156 131
0.589236 0.378844 1.81308 158 141 113
0.614119 0.379113 1.81366 162 141 120
0.639002 0.379383 1.81424 161 136 114
0.667869 0.381966 1.82586 144 130 103
0.688769 0.379922 1.8154 160 142 118
0.705075 0.375557 1.79388 155 138 110
0.725617 0.373716 1.78441 141 126 103
0.758825 0.37841 1.80608 124 102 89
0.793046 0.383321 1.82877 114 94 96
0.832773 0.390563 1.86253 101 87 74
0.858265 0.390839 1.86312 116 100 87
0.873354 0.386461 1.84158 99 87 73
0.898542 0.386734 1.84216 115 93 80
0.92373 0.387007 1.84275 109 91 81
0.954575 0.389611 1.85441 112 93 78
-1.23529 0.474273 2.17791 131 114 86
-1.20473 0.474604 2.17862 128 110 90
-1.17417 0.474935 2.17933 126 109 89
-1.15199 0.478699 2.19577 128 111 95
-1.12121 0.479032 2.19648 135 109 92
-1.1073 0.486671 2.23063 125 106 92
-1.07605 0.48701 2.23136 120 102 80
-1.0448 0.487348 2.23208 88 79 64
-0.897198 0.432564 1.98083 63 48 43
-0.87522 0.435665 1.99428 71 58 49
-0.847334 0.435967 1.99493 61 52 43
-0.819447 0.436269 1.99557 65 52 46
-0.786372 0.433764 1.98341 78 63 58
-0.758666 0.434064 1.98405 68 53 50
-0.735788 0.437174 1.99752 47 35 35
-0.693597 0.428822 1.9587 28 24 13
-0.666264 0.429117 1.95934 21 12 17
-0.652129 0.43808 1.99946 69 53 53
-0.624243 0.438382 2.00011 59 60 42
-0.596356 0.438684 2.00076 68 50 46
-0.56847 0.438986 2.00141 60 44 44
-0.537014 0.436464 1.9892 245 231 228
-0.505657 0.43372 1.97601 220 212 209
-0.478144 0.434017 1.97664 130 121 126
-0.453895 0.437363 1.99114 116 105 111
-0.423119 0.434613 1.97792 113 100 109
-0.395606 0.434911 1.97856 105 94 98
-0.370775 0.438263 1.99307 38 27 25
-0.347867 0.444458 2.02046 64 48 49
-0.317493 0.441704 2.00724 75 53 55
-0.362826 0.548692 2.49167 88 72 56
-0.325326 0.544473 2.47165 100 75 68
-0.296116 0.554039 2.51411 98 80 70
-0.261186 0.554417 2.51492 105 81 71
-0.228243 0.559399 2.53658 111 86 79
-0.193022 0.559781 2.5374 103 85 75
-0.157801 0.560162 2.53821 103 83 72
-0.123749 0.565376 2.56089 102 81 78
-0.0882236 0.565761 2.56172 101 88 72
-0.0526979 0.566145 2.56254 105 80 76
-0.0174284 0.571373 2.58525 105 81 79
0.0185026 0.581893 2.63185 90 73 66
0.0542319 0.572148 2.58692 81 68 59
0.0850736 0.535702 2.42149 29 20 23
0.115271 0.51929 2.34659 42 33 26
0.142673 0.500205 2.25968 46 38 36
0.166927 0.478884 2.16275 48 38 37
0.190428 0.46262 2.08868 80 67 48
0.205909 0.433055 1.95474 133 121 97
0.22725 0.422274 1.90549 125 46 41
0.250503 0.41724 1.88216 180 155 135
0.273232 0.41242 1.8598 174 153 134
0.297178 0.410257 1.84942 167 147 120
0.318968 0.405647 1.82804 179 156 138
0.340149 0.401031 1.80664 175 155 130
0.360722 0.396409 1.78523 174 153 124
0.385301 0.396675 1.7858 170 140 130
0.409879 0.396941 1.78637 177 145 132
0.434458 0.397207 1.78695 177 161 127
0.459037 0.397473 1.78752 168 138 114
0.480964 0.395508 1.77808 138 78 68
0.511263 0.400461 1.79967 131 82 65
0.532773 0.398271 1.78923 153 142 114
0.557352 0.398538 1.7898 163 147 113
0.581931 0.398804 1.79037 176 155 136
0.599823 0.394592 1.77089 165 143 120
0.620295 0.392391 1.76042 157 136 109
0.644444 0.392653 1.76099 154 133 116
0.668594 0.392914 1.76155 148 127 96
0.69703 0.395645 1.77315 163 139 113
0.712858 0.391191 1.75263 165 145 121
0.728522 0.386956 1.73309 151 126 106
0.752257 0.387213 1.73365 123 112 92
0.789343 0.394222 1.76435 125 100 93
0.832766 0.403942 1.80715 104 88 72
0.852297 0.401731 1.79666 106 82 72
0.882228 0.404478 1.80829 119 101 89
0.901454 0.402263 1.7978 117 101 76
0.926033 0.402529 1.79837 103 97 75
-1.24464 0.508476 2.19281 131 113 99
-1.21386 0.508809 2.19352 125 111 84
-1.18309 0.509142 2.19424 128 106 82
-1.15231 0.509476 2.19495 136 111 91
-1.1302 0.513694 2.21237 120 102 90
-1.09918 0.51403 2.21309 128 106 92
-1.07637 0.518257 2.23053 122 100 87
-0.873839 0.448352 1.92894 76 56 55
-0.846852 0.448644 1.92956 86 69 62
-0.814315 0.445953 1.91739 69 58 52
-0.787508 0.446243 1.91801 69 54 59
-0.765892 0.44952 1.93145 75 62 54
-0.738905 0.449813 1.93207 76 65 63
-0.716377 0.452866 1.94453 63 56 50
-0.693876 0.456152 1.95798 60 49 55
-0.662072 0.453454 1.94579 72 58 45
-0.634919 0.453748 1.94642 70 57 51
-0.603971 0.451274 1.93521 73 59 46
-0.580613 0.454336 1.94768 65 53 53
-0.546246 0.448856 1.92362 66 52 51
-0.523011 0.45215 1.93709 71 57 48
-0.499155 0.455218 1.94958 62 51 45
-0.472002 0.455512 1.95021 53 46 38
-0.450912 0.461826 1.97656 57 48 43
-0.420548 0.459112 1.96433 58 47 43
-0.395887 0.462422 1.97783 49 40 43
-0.365882 0.459704 1.9656 46 38 35
-0.340862 0.463018 1.97911 46 36 35
-0.311217 0.460295 1.96687 43 33 24
-0.360026 0.578448 2.46994 79 60 53
-0.32854 0.583704 2.49155 91 69 55
-0.296473 0.588967 2.51318 85 68 52
-0.261542 0.589345 2.514 88 70 50
-0.228603 0.594618 2.53565 108 88 77
-0.193382 0.594999 2.53646 107 86 69
-0.158161 0.595381 2.53728 107 89 79
-0.124112 0.600899 2.55995 99 83 60
-0.0894546 0.606424 2.58264 101 83 79
-0.0542139 0.61219 2.60633 100 80 71
-0.0177943 0.6072 2.5843 106 82 82
0.0181302 0.618357 2.63088 101 83 73
0.054597 0.618752 2.63173 80 66 55
0.0890421 0.603207 2.5649 23 23 15
0.115767 0.556211 2.36464 36 31 28
0.141378 0.527462 2.24192 50 41 42
0.166621 0.508775 2.16196 51 41 40
0.191409 0.494998 2.10286 51 36 39
0.208106 0.465918 1.97894 75 29 29
0.224275 0.442919 1.88086 122 39 31
0.245933 0.435195 1.84756 172 152 128
0.268336 0.430288 1.8262 173 155 131
0.290129 0.425374 1.80483 177 156 139
0.311313 0.420453 1.78344 171 151 114
0.335892 0.420719 1.78401 170 151 137
0.356555 0.416261 1.7646 184 163 132
0.376454 0.411561 1.74418 168 153 124
0.400466 0.411821 1.74474 173 149 125
0.419731 0.407348 1.7253 158 142 119
0.443465 0.407605 1.72585 158 141 121
0.46985 0.410231 1.73641 173 156 126
0.490934 0.408119 1.72695 157 140 122
0.514669 0.408376 1.7275 155 132 98
0.538403 0.408633 1.72805 157 140 110
0.562138 0.40889 1.7286 158 143 114
0.585872 0.409147 1.72916 159 141 101
0.606475 0.407263 1.72068 163 141 128
0.626466 0.405139 1.7112 159 142 114
0.649938 0.405393 1.71175 151 132 102
0.677305 0.40803 1.72233 145 130 107
0.696881 0.405901 1.71284 139 123 100
0.720352 0.406155 1.71339 150 136 101
0.739513 0.404022 1.70389 166 141 121
0.758842 0.402124 1.69539 133 88 82
0.782051 0.402376 1.69593 102 78 74
0.801006 0.400474 1.68742 99 79 78
0.851817 0.414367 1.74528 96 82 82
0.87569 0.414626 1.74584 120 97 91
0.899562 0.414884 1.74639 120 99 82
-1.24496 0.539252 2.19199 125 102 84
-1.21418 0.539586 2.19271 136 107 99
-1.1834 0.539919 2.19342 123 102 99
-1.15262 0.540252 2.19414 127 101 102
-1.13051 0.544706 2.21155 120 97 89
-1.10794 0.549165 2.22898 121 108 92
-1.07669 0.549504 2.2297 110 96 93
-0.87767 0.462902 1.87843 78 70 67
-0.845917 0.46027 1.86724 78 68 58
-0.82508 0.463471 1.87966 80 61 67
-0.798785 0.463756 1.88027 85 71 70
-0.77249 0.464041 1.88088 80 70 78
-0.741402 0.461402 1.86967 73 63 61
-0.719901 0.46461 1.8821 69 60 55
-0.698067 0.467821 1.89454 64 48 49
-0.671606 0.468108 1.89515 58 52 52
-0.645145 0.468394 1.89577 52 46 46
-0.622977 0.471857 1.90921 49 42 36
-0.596337 0.472146 1.90982 44 37 29
-0.569696 0.472434 1.91044 45 41 32
-0.543055 0.472723 1.91106 42 34 32
-0.519713 0.475951 1.92353 42 37 31
-0.496299 0.479427 1.937 45 35 34
-0.472279 0.482662 1.94949 45 35 33
-0.445126 0.482956 1.95012 45 34 32
-0.420827 0.486442 1.96361 39 32 24
-0.393494 0.486738 1.96424 37 32 29
-0.366161 0.487034 1.96488 34 31 24
-0.341143 0.490528 1.97838 40 28 28
-0.31363 0.490826 1.97902 39 28 24
-0.363534 0.617967 2.48983 72 58 47
-0.328894 0.618342 2.49064 85 69 54
-0.299405 0.629074 2.53308 95 75 66
