ply
format ascii 1.0
element vertex 1299
property float x
property float y
property float z
property uchar red
property uchar green
property uchar blue
end_header
-0.469459 0.0652091 2.34593 121 100 95
-0.436998 0.0657509 2.34684 115 92 86
-0.407968 0.0668649 2.36664 123 101 90
-0.375244 0.0674111 2.36756 124 104 93
-0.342521 0.0679573 2.36847 133 111 100
-0.312439 0.0690889 2.3883 133 110 94
-0.281832 0.0702292 2.40815 136 114 100
-0.250699 0.0713783 2.42802 137 114 96
-0.219138 0.0725676 2.44889 139 114 109
-0.185349 0.0731316 2.44983 141 117 105
-0.15156 0.0736956 2.45077 145 121 109
-0.117771 0.0742596 2.45171 142 119 103
-0.0839815 0.0748236 2.45266 152 126 111
-0.0507598 0.0760407 2.47358 154 128 111
-0.016694 0.0766093 2.47453 152 125 106
0.0173578 0.0778403 2.49547 154 129 122
0.0517003 0.0784135 2.49643 122 97 75
0.0866093 0.0796919 2.5184 137 111 88
0.121242 0.0802699 2.51936 137 110 89
0.157023 0.0815629 2.54136 139 110 96
0.191947 0.0821458 2.54233 139 111 100
0.228599 0.0834533 2.56435 141 116 94
0.263814 0.0840411 2.56533 134 112 91
0.299028 0.0846288 2.56631 137 111 86
0.336966 0.0859909 2.58936 141 112 98
0.375514 0.0873631 2.61243 139 112 91
0.411337 0.0879611 2.61343 137 112 82
0.44716 0.088559 2.61443 134 109 87
0.479041 0.0883624 2.59332 134 110 82
0.518806 0.0897549 2.61642 128 108 75
0.554629 0.0903529 2.61742 130 103 86
0.595528 0.0917975 2.64156 129 107 86
0.637063 0.0932527 2.66571 125 95 85
0.673523 0.0938613 2.66673 129 105 81
0.716013 0.0953325 2.69091 119 97 83
0.759415 0.096852 2.71611 122 97 75
0.789568 0.0965602 2.69296 118 94 68
0.833635 0.0980908 2.71818 124 96 84
0.870745 0.0987103 2.71921 120 94 79
0.907855 0.0993297 2.72025 116 87 71
0.944965 0.0999491 2.72128 117 93 65
0.956941 0.0978301 2.65162 117 90 81
0.976302 0.0966625 2.60717 117 95 74
0.995191 0.0955534 2.5647 123 99 89
1.00528 0.0936678 2.50299 126 105 78
1.03106 0.0934356 2.48371 122 95 78
1.03187 0.0908984 2.40675 125 101 89
1.04824 0.0899458 2.37021 126 106 82
1.06404 0.089017 2.33465 124 107 81
1.07179 0.0874569 2.28388 118 100 78
1.07911 0.0859557 2.23509 134 109 78
1.09352 0.0851362 2.20349 135 106 88
1.10807 0.0843853 2.1739 124 101 87
-1.15769 0.0732703 2.05087 152 138 129
-1.1368 0.0742766 2.06544 145 129 113
-1.11605 0.0753273 2.08101 144 125 118
-1.087 0.0758123 2.08182 146 120 133
-1.06563 0.0768734 2.09741 134 122 106
-1.04385 0.0779414 2.113 138 118 107
-1.02166 0.0790163 2.12861 129 108 113
-0.991981 0.0795117 2.12944 128 109 94
-0.976485 0.0812263 2.16085 128 104 100
-0.946376 0.0817289 2.16169 121 103 93
-0.916268 0.0822315 2.16253 130 112 98
-0.892815 0.0833744 2.17917 128 110 96
-0.862485 0.0838806 2.18002 130 112 98
-0.832155 0.0843869 2.18086 145 123 112
-0.81381 0.086196 2.21335 143 121 108
-0.789168 0.0874057 2.23103 141 119 106
-0.75816 0.0879233 2.23189 144 121 105
-0.732813 0.0891448 2.24959 150 129 108
-0.70157 0.0896663 2.25046 145 123 112
-0.675518 0.0908996 2.26818 145 122 104
-0.648995 0.0921407 2.2859 147 126 105
-0.622279 0.093432 2.30464 157 129 115
-0.590316 0.0939656 2.30553 147 125 112
-0.567353 0.0960396 2.34215 150 122 111
-0.539379 0.0973989 2.36191 147 126 109
-0.506655 0.0979451 2.36283 143 117 102
-0.473931 0.0984913 2.36374 143 121 107
-0.444906 0.0998682 2.38353 143 116 99
-0.411919 0.100419 2.38445 142 116 101
-0.382105 0.101809 2.40427 133 105 93
-0.348855 0.102364 2.4052 132 104 93
-0.318252 0.103767 2.42504 128 100 89
-0.287249 0.105224 2.44589 132 106 91
-0.25346 0.105788 2.44683 119 98 79
-0.221626 0.107258 2.46771 128 103 83
-0.18756 0.107827 2.46865 133 111 88
-0.153494 0.108396 2.4696 133 105 91
-0.119429 0.108964 2.47055 131 115 92
-0.0853627 0.109533 2.4715 133 106 89
-0.0518687 0.111031 2.49242 138 107 87
-0.0175262 0.111605 2.49338 136 104 93
0.0167971 0.113164 2.51532 138 110 96
0.0514302 0.113742 2.51629 129 103 90
0.0860633 0.11432 2.51725 139 112 93
0.120696 0.114898 2.51822 141 115 90
0.156473 0.116481 2.5402 139 113 96
0.191396 0.117064 2.54117 134 109 87
0.228044 0.118662 2.56318 137 109 98
0.263258 0.11925 2.56416 134 113 84
0.298473 0.119838 2.56514 137 116 87
0.339126 0.122583 2.61025 134 108 83
0.374949 0.123181 2.61125 131 108 90
0.410772 0.123779 2.61224 138 113 91
0.446595 0.124377 2.61324 136 110 93
0.482418 0.124975 2.61424 131 107 97
0.518241 0.125573 2.61524 133 108 86
0.554064 0.126171 2.61623 126 98 84
0.600029 0.129098 2.66349 119 100 85
0.636488 0.129707 2.6645 122 96 81
0.678655 0.131491 2.68866 117 98 84
0.709407 0.130924 2.66653 103 84 69
0.75883 0.133956 2.71488 113 93 69
0.79594 0.134576 2.71592 117 95 81
0.83305 0.135195 2.71695 106 85 66
0.862544 0.13456 2.69379 89 70 63
0.891705 0.133967 2.67161 103 84 70
0.9361 0.135788 2.69583 107 91 76
0.956371 0.133966 2.65043 115 98 88
0.983941 0.133346 2.62821 114 96 82
0.994641 0.130472 2.56354 113 93 82
1.00474 0.127729 2.50186 125 98 89
1.02224 0.126142 2.46237 124 102 91
1.03136 0.123617 2.40566 122 102 75
1.04773 0.122153 2.36914 114 95 81
1.06354 0.120726 2.3336 124 96 93
1.07131 0.11846 2.28285 130 106 94
1.08636 0.117162 2.25029 121 100 73
1.101 0.115903 2.21872 123 99 89
1.1076 0.113853 2.17293 132 103 95
-1.17463 0.10341 2.07843 138 123 104
-1.15389 0.104668 2.09399 144 123 106
-1.12462 0.105157 2.09481 148 129 112
-1.09536 0.105645 2.09562 147 130 114
-1.08149 0.107701 2.12598 145 127 105
-1.06728 0.109823 2.15734 152 130 119
-1.03718 0.110325 2.15818 145 121 97
-1.01461 0.111675 2.17479 144 128 105
-0.984283 0.112181 2.17563 142 127 104
-0.953953 0.112687 2.17648 137 115 104
-0.930505 0.114052 2.19312 140 119 98
-0.906613 0.115423 2.20976 133 121 95
-0.87584 0.115937 2.21062 137 117 93
-0.851673 0.117374 2.22828 135 112 98
-0.827035 0.118819 2.24594 138 107 104
-0.801928 0.120272 2.26363 139 103 91
-0.770449 0.120797 2.2645 134 116 92
-0.738971 0.121323 2.26538 135 116 86
-0.707492 0.121848 2.26626 134 111 93
-0.686708 0.124323 2.3018 136 117 85
-0.659996 0.125863 2.32052 142 118 94
-0.627784 0.126401 2.32142 138 120 98
-0.595573 0.126939 2.32232 136 113 97
-0.572618 0.129572 2.35992 138 116 92
-0.539894 0.130118 2.36083 136 118 94
-0.507171 0.130664 2.36174 139 115 91
-0.474447 0.13121 2.36265 140 119 90
-0.445426 0.13285 2.38244 138 113 91
-0.415878 0.134498 2.40224 141 116 96
-0.382629 0.135053 2.40317 139 113 98
-0.352293 0.136715 2.423 138 116 102
-0.31878 0.137274 2.42393 139 112 85
-0.290295 0.140182 2.46468 136 111 91
-0.253992 0.139572 2.44571 136 117 100
-0.222163 0.141319 2.46658 134 108 91
-0.188097 0.141888 2.46753 139 112 101
-0.155438 0.143649 2.48842 136 110 97
-0.121095 0.144222 2.48937 136 111 89
-0.0867527 0.144796 2.49033 132 107 87
-0.0524102 0.145369 2.49128 137 111 96
-0.0180677 0.145942 2.49224 137 113 87
0.016251 0.147792 2.51417 134 110 84
0.0508841 0.14837 2.51514 118 100 76
0.0849599 0.147662 2.49511 132 116 93
0.12015 0.149526 2.51707 128 96 83
0.153645 0.148808 2.49702 132 111 84
0.190846 0.151983 2.54002 138 112 95
0.227489 0.153871 2.56201 132 106 83
0.262703 0.154459 2.56299 126 102 90
0.297917 0.155047 2.56398 129 109 84
0.335846 0.157018 2.58701 130 105 83
0.374384 0.158999 2.61006 132 108 84
0.410207 0.159597 2.61106 131 105 80
0.44603 0.160195 2.61205 134 113 86
0.481853 0.160793 2.61305 127 107 83
0.517676 0.161391 2.61405 126 104 81
0.558247 0.163466 2.63816 121 98 84
0.599454 0.165553 2.66228 118 91 82
0.635913 0.166161 2.6633 111 93 69
0.666671 0.165276 2.64118 86 68 64
0.696792 0.16438 2.61904 80 66 55
0.732615 0.164978 2.62004 78 63 56
0.775095 0.167086 2.6442 94 77 67
0.818211 0.169204 2.66837 77 65 51
0.840084 0.166772 2.62303 82 68 59
0.861345 0.164452 2.57967 76 62 53
0.889319 0.163642 2.55947 88 74 61
0.924243 0.164225 2.56044 92 73 59
0.966988 0.166215 2.58261 105 87 75
0.99409 0.165391 2.56239 113 92 75
1.01221 0.163139 2.52094 121 100 83
1.02999 0.161004 2.48147 117 89 78
1.03897 0.157627 2.42378 120 102 88
1.04722 0.15436 2.36807 122 104 82
1.0553 0.151272 2.31535 124 103 86
1.07082 0.149464 2.28182 135 107 95
1.07815 0.146607 2.23308 129 102 93
1.09258 0.144902 2.20151 126 104 83
1.10714 0.143321 2.17195 136 108 94
-1.17508 0.132463 2.07747 138 117 98
-1.16267 0.134909 2.10777 146 126 101
-1.14943 0.137369 2.13809 140 112 109
-1.11954 0.137868 2.13892 145 121 109
-1.08966 0.138367 2.13976 145 122 114
-1.07575 0.140988 2.1721 144 130 104
-1.04542 0.141494 2.17294 144 122 101
-1.02264 0.143069 2.18955 144 121 105
-0.992089 0.143579 2.1904 143 116 105
-0.968643 0.145164 2.20703 150 123 116
-0.937871 0.145678 2.20789 143 120 106
-0.907098 0.146191 2.20874 139 116 102
-0.88317 0.14786 2.22639 146 121 99
-0.858771 0.149536 2.24404 148 119 105
-0.833902 0.15122 2.26171 138 116 103
-0.802424 0.151745 2.26258 142 125 105
-0.776849 0.153441 2.28027 146 120 105
-0.739467 0.152796 2.26434 140 119 98
-0.719175 0.155747 2.29985 145 125 101
-0.692716 0.157533 2.31856 144 121 107
-0.660504 0.15807 2.31946 143 115 104
-0.628292 0.158608 2.32035 148 123 101
-0.59608 0.159146 2.32125 138 116 93
-0.573134 0.16229 2.35883 142 117 95
-0.54041 0.162837 2.35975 143 120 104
-0.507687 0.163383 2.36066 139 119 95
-0.478932 0.165281 2.38043 148 122 99
-0.449652 0.167188 2.40022 139 118 101
-0.416402 0.167743 2.40114 142 120 97
-0.383153 0.168298 2.40207 139 110 102
-0.352821 0.170222 2.42189 139 117 96
-0.319309 0.170782 2.42282 139 113 90
-0.290832 0.174243 2.46355 137 117 93
-0.256766 0.174811 2.4645 133 111 97
-0.224664 0.17684 2.48536 134 106 94
-0.188634 0.175949 2.4664 136 109 88
-0.155979 0.177987 2.48728 139 114 94
-0.121637 0.17856 2.48823 135 113 92
-0.0872942 0.179133 2.48919 135 112 96
-0.0529517 0.179706 2.49015 140 114 99
-0.0189281 0.181842 2.51206 133 109 97
0.0156766 0.183987 2.534 133 109 85
0.0503381 0.182998 2.51399 125 107 103
0.083892 0.180498 2.47399 93 80 64
0.116352 0.178054 2.43495 112 104 93
0.148838 0.177178 2.41689 164 144 119
0.182087 0.177733 2.41781 151 135 109
0.215337 0.178288 2.41874 145 114 94
0.254221 0.183341 2.47873 140 97 90
0.288287 0.183909 2.47968 151 130 101
0.322353 0.184478 2.48063 148 129 97
0.353678 0.183508 2.46153 149 130 100
0.390484 0.185615 2.48253 136 120 87
0.427844 0.187732 2.50354 146 125 104
0.462186 0.188305 2.50449 144 122 98
0.500568 0.190513 2.52653 125 105 81
0.539532 0.192731 2.54859 101 82 67
0.579076 0.194958 2.57066 96 73 67
0.619435 0.197274 2.59375 72 63 58
0.644303 0.19448 2.5515 81 63 53
0.673734 0.193403 2.53136 76 62 51
0.71415 0.195646 2.55345 58 52 38
0.749074 0.196229 2.55442 75 62 45
0.790362 0.198485 2.57654 71 53 49
0.812266 0.195716 2.53521 82 67 60
0.83334 0.193007 2.49486 93 77 77
0.860514 0.191968 2.47565 108 100 81
0.887135 0.19092 2.45642 79 65 54
0.928092 0.193096 2.47753 106 88 86
0.961881 0.19366 2.47847 87 68 64
0.99567 0.194224 2.47941 113 94 80
1.02118 0.193157 2.46015 118 96 82
1.03845 0.190609 2.42269 115 92 78
1.04672 0.186567 2.36701 122 103 86
1.06254 0.184144 2.3315 122 99 81
1.07033 0.180467 2.28079 130 104 89
1.07767 0.176932 2.23207 123 94 86
1.09211 0.174785 2.20052 121 105 69
1.10667 0.172788 2.17097 130 104 91
-1.19261 0.163885 2.10597 140 122 102
-1.17146 0.165565 2.12153 142 120 107
-1.14178 0.16606 2.12236 143 120 112
-1.12001 0.167751 2.13793 146 118 106
-1.09834 0.169528 2.15451 149 122 113
-1.07623 0.171313 2.17109 144 121 105
-1.0459 0.17182 2.17194 150 127 111
-1.01557 0.172326 2.17278 150 123 106
-0.999901 0.175419 2.20515 148 124 112
-0.976682 0.17731 2.22277 147 129 107
-0.945675 0.177828 2.22363 142 126 103
-0.914667 0.178346 2.22449 146 125 108
-0.890507 0.180253 2.24213 148 129 96
-0.859264 0.180775 2.243 147 124 108
-0.834398 0.182694 2.26066 146 123 109
-0.809063 0.184621 2.27834 144 128 95
-0.771442 0.183745 2.26242 150 117 110
-0.751641 0.187172 2.2979 142 120 107
-0.719678 0.187705 2.29879 146 127 97
-0.693223 0.18974 2.31749 137 118 103
-0.66627 0.191782 2.33621 147 126 107
-0.6288 0.190815 2.31929 140 120 95
-0.601349 0.192866 2.33802 143 118 98
-0.57365 0.195009 2.35775 143 117 100
-0.545425 0.197162 2.3775 139 117 93
-0.516675 0.199323 2.39726 144 120 96
-0.483426 0.199878 2.39819 144 115 101
-0.453887 0.202052 2.41797 142 113 99
-0.420374 0.202611 2.41891 144 118 101
-0.386862 0.203171 2.41984 140 119 102
-0.35335 0.20373 2.42077 140 117 86
-0.319837 0.204289 2.42171 138 114 90
-0.291369 0.208304 2.46242 135 112 98
-0.257303 0.208872 2.46337 137 108 94
-0.223237 0.209441 2.46432 132 111 94
-0.190863 0.211751 2.48518 136 110 97
-0.156521 0.212324 2.48614 140 111 95
-0.122178 0.212897 2.4871 138 113 91
-0.0887404 0.215314 2.50899 131 112 97
-0.0541073 0.215892 2.50995 130 107 89
-0.0194742 0.21647 2.51092 130 108 85
0.015093 0.220763 2.5538 124 96 93
0.0495345 0.215764 2.49188 135 120 101
0.0823108 0.211002 2.43291 139 127 111
0.113547 0.20648 2.37689 163 138 118
0.14627 0.207026 2.3778 163 142 123
0.176492 0.204257 2.34172 157 146 114
0.21017 0.206412 2.36062 147 125 101
0.242631 0.206953 2.36152 142 114 92
0.279238 0.210927 2.40047 154 134 109
0.314561 0.213197 2.42041 149 131 107
0.35041 0.215477 2.44038 146 129 103
0.38106 0.214307 2.42227 149 131 107
0.414309 0.214862 2.42319 149 127 106
0.444171 0.21368 2.40506 117 86 65
0.477157 0.21423 2.40598 120 68 55
0.502317 0.211288 2.36876 121 81 69
0.538954 0.213581 2.38874 140 111 97
0.567238 0.212372 2.37056 105 87 75
0.609104 0.216433 2.40966 100 78 65
0.662473 0.224225 2.48899 58 39 33
0.696539 0.224794 2.48994 84 67 59
0.719045 0.22163 2.45064 91 75 62
0.752558 0.222189 2.45158 91 73 69
0.78607 0.222749 2.45251 84 76 53
0.819582 0.223308 2.45344 84 73 55
0.846552 0.222077 2.43523 72 59 50
0.86619 0.219043 2.39785 95 77 77
0.898914 0.219589 2.39876 113 95 81
0.924307 0.218332 2.38051 85 71 58
0.956767 0.218874 2.38141 89 75 62
0.981785 0.217698 2.36415 96 84 70
1.02169 0.219957 2.38322 107 87 80
1.03827 0.217049 2.34775 116 97 83
1.06204 0.215853 2.33045 120 99 80
1.06984 0.21147 2.27977 119 98 79
1.08492 0.208802 2.24725 120 98 75
1.09958 0.206216 2.21572 122 103 88
1.12152 0.205166 2.20037 129 103 90
-1.19307 0.193353 2.10499 147 126 105
-1.17193 0.19524 2.12055 147 127 100
-1.15037 0.197135 2.13611 144 121 105
-1.12048 0.197634 2.13694 147 125 111
-1.09882 0.199633 2.15351 140 121 89
-1.07671 0.201639 2.17009 141 122 107
-1.06193 0.20516 2.20242 152 128 118
-1.03116 0.205673 2.20328 146 129 111
-1.00039 0.206187 2.20413 149 125 115
-0.977171 0.208314 2.22174 140 124 108
-0.938841 0.207214 2.20585 149 124 104
-0.915156 0.209349 2.22347 148 120 108
-0.890999 0.211492 2.2411 142 121 100
-0.859756 0.212013 2.24197 146 120 107
-0.834895 0.214168 2.25962 143 121 107
-0.803416 0.214693 2.2605 142 121 102
-0.777849 0.216859 2.27817 143 118 113
-0.752145 0.21913 2.29684 142 124 100
-0.725943 0.221409 2.31553 145 118 109
-0.693731 0.221947 2.31643 141 118 100
-0.66152 0.222484 2.31732 133 112 95
-0.634321 0.22478 2.33604 119 101 89
-0.601861 0.225322 2.33694 134 112 89
-0.578932 0.229593 2.37549 147 123 97
-0.550449 0.232012 2.39524 139 116 100
-0.517199 0.232567 2.39616 141 120 103
-0.48395 0.233122 2.39709 145 122 108
-0.454415 0.235559 2.41686 135 113 89
-0.424536 0.238104 2.43765 139 117 96
-0.38739 0.236678 2.41873 143 118 98
-0.353878 0.237237 2.41966 140 116 90
-0.323169 0.239796 2.44047 140 112 98
-0.291906 0.242365 2.46129 136 109 92
-0.25784 0.242933 2.46224 139 111 99
-0.225747 0.245515 2.48309 139 113 100
-0.193186 0.248207 2.50495 130 107 91
-0.157062 0.246662 2.485 130 106 94
-0.12392 0.249364 2.50687 133 107 94
-0.0892864 0.249942 2.50784 122 105 77
-0.0546533 0.25052 2.5088 124 104 97
-0.0200202 0.251098 2.50977 120 101 87
0.0145378 0.255972 2.55263 115 93 79
0.049499 0.254407 2.53265 101 87 74
0.0812907 0.242557 2.41283 135 115 104
0.110846 0.233535 2.32088 164 147 121
0.142809 0.234068 2.32177 160 127 118
0.175984 0.236464 2.34065 162 141 120
0.206734 0.235135 2.32355 162 142 117
0.235369 0.232032 2.28943 143 126 98
0.268699 0.234328 2.30732 152 135 109
0.302622 0.236736 2.32622 163 140 122
0.337043 0.239152 2.34513 139 121 107
0.369255 0.23969 2.34603 111 97 84
0.401466 0.240227 2.34693 152 136 103
0.436883 0.24266 2.36587 152 135 105
0.469344 0.243202 2.36678 160 133 106
0.501805 0.243744 2.36768 159 134 112
0.530313 0.242378 2.35052 161 134 117
0.562525 0.242916 2.35141 155 128 107
0.594736 0.243453 2.35231 144 87 93
0.622248 0.242071 2.33512 112 87 82
0.664109 0.246453 2.3722 89 75 64
0.702056 0.249031 2.39221 85 71 58
0.723583 0.245604 2.3559 88 77 71
0.767504 0.250123 2.39403 95 81 70
0.793952 0.24862 2.37582 93 78 73
0.826412 0.249162 2.37672 84 71 54
0.858873 0.249704 2.37763 98 84 75
0.884642 0.248292 2.36039 93 80 64
0.909912 0.246873 2.34313 89 74 55
0.927893 0.243592 2.30872 112 95 79
0.945319 0.240404 2.27529 82 64 50
0.976326 0.240921 2.27615 103 84 67
1.00733 0.241439 2.27701 87 68 62
1.03061 0.240088 2.2607 107 91 66
1.06935 0.242474 2.27874 118 101 73
1.07672 0.237583 2.23006 123 102 81
1.10705 0.238089 2.23091 120 102 88
1.10575 0.231724 2.16902 132 102 94
-1.20208 0.22442 2.11874 153 120 113
-1.18073 0.226519 2.13429 146 119 108
-1.15084 0.227018 2.13512 144 122 108
-1.12096 0.227517 2.13595 148 124 114
-1.09929 0.229737 2.15251 148 124 120
-1.07719 0.231964 2.16908 146 124 103
-1.05464 0.234199 2.18566 155 130 99
-1.03968 0.238282 2.21899 151 128 110
-1.00867 0.2388 2.21985 144 121 105
-0.97766 0.239317 2.22071 145 123 109
-0.946652 0.239835 2.22158 151 124 103
-0.915644 0.240352 2.22244 146 125 106
-0.891492 0.24273 2.24006 150 131 117
-0.860249 0.243252 2.24093 140 123 103
-0.841776 0.247509 2.27535 146 121 99
-0.810063 0.248039 2.27624 146 118 96
-0.784612 0.250554 2.29489 138 121 105
-0.752649 0.251088 2.29578 143 118 98
-0.726451 0.253616 2.31446 139 117 93
-0.694239 0.254154 2.31536 133 115 93
-0.590931 0.227652 2.07593 40 32 29
-0.55818 0.226572 2.06288 31 25 29
-0.607405 0.259901 2.35467 132 105 96
-0.579452 0.262574 2.3744 137 115 104
-0.550973 0.265257 2.39413 143 117 90
-0.521968 0.267948 2.41389 134 116 94
-0.488456 0.268507 2.41482 137 112 92
-0.454943 0.269067 2.41575 141 120 101
-0.421431 0.269626 2.41669 144 118 95
-0.39128 0.272452 2.43747 138 113 83
-0.35749 0.273016 2.43841 141 115 102
-0.323701 0.27358 2.43935 142 114 102
-0.294974 0.278706 2.48004 136 114 90
-0.260631 0.27928 2.48099 132 111 90
-0.226289 0.279853 2.48195 141 113 99
-0.193732 0.282835 2.5038 131 110 93
-0.159099 0.283414 2.50476 123 105 85
-0.12567 0.286411 2.52663 127 106 87
-0.0907463 0.286994 2.52761 123 105 85
-0.0558226 0.287577 2.52858 123 102 83
-0.020899 0.28816 2.52955 121 99 78
0.0139826 0.291181 2.55146 116 94 81
0.0491968 0.291769 2.55244 97 80 72
0.0817674 0.280348 2.45065 118 103 74
0.109631 0.26339 2.30185 156 124 111
0.139531 0.25994 2.26878 176 103 114
0.170774 0.260461 2.26965 175 132 126
0.20064 0.258985 2.25353 159 137 123
0.231648 0.259503 2.25439 150 133 103
0.260808 0.258015 2.23826 169 152 122
0.28962 0.256637 2.2231 156 138 102
0.320172 0.257147 2.22395 133 109 97
0.35568 0.261573 2.25785 155 138 118
0.389476 0.264112 2.27574 164 142 118
0.423743 0.266658 2.29365 159 137 116
0.451962 0.265155 2.27748 144 131 97
0.483205 0.265676 2.27835 150 135 106
0.510719 0.264161 2.26217 150 129 110
0.534031 0.260717 2.22991 156 130 113
0.572735 0.265196 2.26389 155 111 102
0.603743 0.265714 2.26476 156 106 109
0.634751 0.266231 2.26562 116 99 71
0.67557 0.270862 2.30066 98 81 71
0.701907 0.269327 2.28444 104 96 75
0.738527 0.271913 2.30242 90 77 61
0.775616 0.274506 2.3204 115 104 86
0.795637 0.270891 2.28705 103 88 67
0.82688 0.271413 2.28792 86 71 50
0.86444 0.274014 2.30592 100 83 75
0.882814 0.270372 2.27253 88 73 66
0.913822 0.270889 2.27339 83 63 54
0.937807 0.269315 2.25711 106 93 74
0.954918 0.265884 2.22568 89 75 64
0.978196 0.264414 2.21037 84 73 51
1.00103 0.262936 2.19506 97 81 68
1.02389 0.261576 2.18074 98 84 73
1.06852 0.265921 2.21289 105 89 56
1.09069 0.264433 2.19755 124 101 85
1.10528 0.261192 2.16805 129 98 78
-1.20255 0.254095 2.11775 139 123 100
-1.17287 0.254591 2.11858 144 122 99
-1.15998 0.258836 2.14984 138 116 105
-1.12988 0.259338 2.15068 145 128 110
-1.10799 0.261783 2.16723 144 129 106
-1.08567 0.264236 2.1838 149 128 101
-1.0629 0.266696 2.20038 145 122 106
-1.04016 0.269285 2.21796 136 117 110
-1.00916 0.269803 2.21882 141 124 106
-0.978149 0.270321 2.21969 147 127 103
-0.947141 0.270838 2.22055 145 123 109
-0.923228 0.273447 2.23816 141 117 107
-0.891985 0.273969 2.23903 142 124 102
-0.867366 0.27659 2.25666 147 120 101
-0.849041 0.281445 2.29205 143 119 107
-0.817078 0.281979 2.29294 137 112 105
-0.785116 0.282512 2.29383 139 116 85
-0.75917 0.285285 2.3125 138 115 101
-0.726959 0.285823 2.31339 147 117 107
-0.694747 0.286361 2.31429 137 114 96
-0.558632 0.255224 2.06193 24 15 16
-0.607921 0.29262 2.35359 126 99 90
-0.589521 0.300337 2.41091 133 107 94
-0.551497 0.298501 2.39303 138 114 86
-0.522496 0.301455 2.41278 137 114 98
-0.488984 0.302015 2.41371 140 113 96
-0.45939 0.305109 2.43447 136 112 84
-0.425601 0.305673 2.43541 140 115 93
-0.391812 0.306237 2.43635 146 118 97
-0.358023 0.306801 2.43729 135 112 94
-0.327046 0.309918 2.45809 131 111 87
-0.295515 0.313044 2.4789 133 106 97
-0.263544 0.316307 2.50072 132 110 89
-0.228911 0.316885 2.50169 124 108 82
-0.196068 0.320164 2.52353 126 102 90
-0.161144 0.320746 2.5245 122 103 86
-0.126221 0.321329 2.52548 126 103 89
-0.0912969 0.321912 2.52645 121 99 76
-0.0563733 0.322495 2.52742 120 101 87
-0.0217869 0.325803 2.54932 113 96 78
0.0133784 0.329249 2.57222 109 91 81
0.0488971 0.329842 2.57321 89 75 62
0.0833214 0.324827 2.53131 53 42 38
0.108463 0.292878 2.28384 125 76 82
0.136382 0.284634 2.21784 159 126 121
0.164791 0.280949 2.18673 167 149 129
0.193607 0.27935 2.17159 147 130 102
0.222074 0.277875 2.15743 156 138 114
0.253381 0.280347 2.17325 155 137 117
0.285225 0.282959 2.19009 174 152 128
0.313155 0.281345 2.17492 167 146 119
0.340793 0.279856 2.16074 170 149 120
0.368015 0.278361 2.14655 156 141 112
0.397487 0.278853 2.14737 161 139 98
0.429832 0.281343 2.16322 158 136 112
0.469161 0.288109 2.21116 153 131 110
0.495985 0.286477 2.19596 147 122 102
0.529821 0.289121 2.21285 149 131 111
0.560151 0.289628 2.21369 159 137 116
0.58631 0.287984 2.19847 156 135 108
0.607909 0.284315 2.16818 164 128 116
0.633264 0.282788 2.15393 128 109 102
0.65367 0.279229 2.1246 98 83 76
0.706744 0.289995 2.20183 88 70 60
0.752686 0.297001 2.25095 91 72 66
0.777959 0.295343 2.23571 109 95 86
0.79135 0.289327 2.18824 101 84 74
0.83312 0.294184 2.2213 102 87 84
0.86345 0.29469 2.22214 80 69 65
0.887396 0.29301 2.20686 94 86 75
0.904705 0.289269 2.17645 92 79 70
0.934384 0.289765 2.17727 94 84 72
0.957456 0.2882 2.16296 86 71 64
0.986928 0.288692 2.16379 84 74 64
1.00938 0.287116 2.14946 109 93 77
1.03141 0.285534 2.13512 94 83 63
1.06047 0.286019 2.13593 101 83 71
1.08952 0.286504 2.13674 109 93 78
-1.21156 0.285786 2.13148 144 125 110
-1.18167 0.286284 2.13231 138 117 86
-1.16046 0.28894 2.14884 140 123 113
-1.13035 0.289442 2.14968 141 115 100
-1.10847 0.292109 2.16623 143 121 110
-1.09416 0.296951 2.1985 142 125 107
-1.07166 0.299771 2.21607 145 124 103
-1.04065 0.300289 2.21693 142 126 103
-1.00965 0.300806 2.21779 143 120 102
-0.986207 0.303643 2.23538 137 118 101
-0.954964 0.304164 2.23625 143 115 94
-0.92372 0.304686 2.23712 156 133 101
-0.89934 0.307538 2.25474 142 111 90
-0.867862 0.308063 2.25562 140 118 95
-0.842776 0.310927 2.27325 138 118 93
-0.817582 0.313937 2.29188 142 121 100
-0.79189 0.316955 2.31053 140 112 98
-0.759678 0.317492 2.31143 133 113 104
-0.733239 0.320523 2.3301 136 119 89
-0.695255 0.318568 2.31322 130 112 88
-0.559083 0.283875 2.06098 25 22 15
-0.613479 0.327987 2.37129 120 109 87
-0.585271 0.331191 2.39101 135 114 87
-0.556537 0.334403 2.41073 134 109 89
-0.523025 0.334963 2.41167 133 106 85
-0.493712 0.338329 2.43241 133 107 92
-0.459923 0.338893 2.43335 131 109 88
-0.426134 0.339457 2.43429 134 108 93
-0.392345 0.340021 2.43523 140 111 93
-0.361649 0.34341 2.45601 130 108 85
-0.327583 0.343978 2.45696 126 104 91
-0.296057 0.347381 2.47776 131 108 94
-0.26409 0.350935 2.49957 131 104 85
-0.229457 0.351513 2.50054 125 109 84
-0.196619 0.355082 2.52237 133 106 87
-0.161695 0.355665 2.52335 122 101 82
-0.126771 0.356248 2.52432 119 97 83
-0.0918476 0.356831 2.52529 115 94 75
-0.0575563 0.360424 2.54717 115 96 79
-0.0223421 0.361012 2.54815 112 94 82
0.0128184 0.364763 2.57105 103 85 73
0.0480864 0.362187 2.55011 94 77 59
0.0817111 0.353687 2.48828 43 35 33
0.111483 0.337355 2.37255 43 23 25
0.135901 0.315181 2.21683 158 135 119
0.162247 0.306559 2.1548 160 142 120
0.18951 0.302699 2.12567 161 139 118
0.215942 0.298826 2.09652 147 125 101
0.243276 0.297268 2.08333 140 121 106
0.275472 0.301977 2.11312 102 90 74
0.306568 0.304653 2.12893 153 139 113
0.335832 0.305142 2.12974 156 136 112
0.365097 0.30563 2.13056 179 158 129
0.386554 0.29966 2.08732 171 148 130
0.412532 0.29808 2.0741 161 140 109
0.438122 0.296493 2.06086 148 113 91
0.463325 0.2949 2.04762 122 73 58
0.514911 0.310288 2.14968 72 27 22
0.544383 0.31078 2.1505 124 76 64
0.577762 0.313495 2.16637 110 24 33
0.595098 0.307312 2.12202 127 37 39
0.619833 0.305567 2.10777 160 140 107
0.648683 0.306049 2.10857 152 127 97
0.66869 0.302355 2.08123 139 120 105
0.697151 0.30283 2.08203 86 78 59
0.755839 0.316467 2.17133 90 82 61
0.774799 0.312469 2.14197 98 83 62
0.798497 0.310707 2.12769 98 85 77
0.827554 0.311192 2.1285 86 73 64
0.85661 0.311677 2.1293 91 77 64
0.879478 0.309901 2.115 114 98 75
0.896385 0.306156 2.08757 102 87 80
0.924847 0.306631 2.08837 109 93 77
0.946951 0.304986 2.07504 102 83 77
0.975219 0.305458 2.07582 91 72 74
1.01023 0.308056 2.09075 105 86 69
1.0387 0.308531 2.09154 102 87 84
1.06716 0.309006 2.09233 96 71 66
-1.21203 0.315668 2.13049 139 116 102
-1.19104 0.318541 2.147 135 128 102
-1.16093 0.319044 2.14784 150 119 101
-1.13928 0.321928 2.16438 142 125 99
-1.10895 0.322434 2.16522 140 116 104
-1.09465 0.327719 2.19749 144 118 103
-1.07215 0.330775 2.21504 134 112 101
-1.04114 0.331292 2.2159 133 117 102
-1.01794 0.33436 2.23348 141 120 103
-0.986699 0.334881 2.23435 134 120 91
-0.955456 0.335403 2.23522 135 116 102
-0.924213 0.335924 2.23609 131 115 102
-0.899837 0.339012 2.2537 133 113 89
-0.87499 0.342107 2.27132 137 109 87
-0.850049 0.345361 2.28994 136 110 95
-0.818086 0.345895 2.29083 134 111 103
-0.792398 0.349162 2.30947 135 107 103
-0.766211 0.352437 2.32812 133 112 91
-0.733751 0.352979 2.32902 133 107 94
-0.70129 0.35352 2.32993 124 97 86
-0.559535 0.312527 2.06003 25 21 18
-0.613999 0.360969 2.3702 96 82 73
-0.590578 0.367352 2.40869 96 78 64
-0.557065 0.367911 2.40962 102 80 67
-0.523553 0.36847 2.41056 89 75 64
-0.494245 0.372113 2.43129 90 73 66
-0.456528 0.369589 2.41242 76 61 54
-0.426667 0.373241 2.43317 73 60 41
-0.396252 0.376902 2.45393 126 104 83
-0.362186 0.377471 2.45488 130 104 91
-0.3253 0.374933 2.43599 132 106 89
-0.299269 0.384985 2.49746 129 103 90
-0.264636 0.385563 2.49843 129 105 79
-0.230003 0.386142 2.49939 127 106 89
-0.197169 0.390001 2.52122 127 106 89
-0.162246 0.390584 2.52219 118 96 83
-0.12854 0.394457 2.54404 120 97 79
-0.0923982 0.39175 2.52414 107 94 77
-0.0581116 0.395633 2.546 110 85 78
-0.0228973 0.396221 2.54698 109 90 76
0.0122584 0.400276 2.56987 107 85 74
0.047777 0.400869 2.57086 102 82 71
0.0806694 0.384863 2.46722 45 29 30
0.110967 0.370074 2.37147 45 35 34
0.135419 0.345728 2.21581 140 132 109
0.159784 0.331471 2.12388 173 155 133
0.185512 0.324963 2.08079 171 152 137
0.212849 0.323212 2.06761 149 133 110
0.239799 0.321454 2.05442 166 145 128
0.268067 0.321926 2.0552 147 128 111
0.294436 0.320159 2.042 117 99 79
0.32251 0.320628 2.04278 153 136 108
0.352872 0.323342 2.05757 154 134 109
0.383621 0.326062 2.07236 177 155 134
0.406734 0.322033 2.04512 167 148 118
0.429276 0.318153 2.01887 165 149 124
0.453915 0.316356 2.00561 161 140 113
0.478399 0.314715 1.99335 112 86 71
0.515582 0.321643 2.03422 137 91 75
0.543463 0.322108 2.03499 121 75 59
0.579018 0.327116 2.06386 158 126 113
0.607286 0.327588 2.06465 153 136 108
0.63133 0.325782 2.05138 160 141 111
0.650884 0.321852 2.02504 148 129 97
0.66969 0.317908 1.99868 142 123 90
0.70148 0.320489 2.01251 104 88 65
0.748627 0.329948 2.06859 108 90 90
0.771703 0.328125 2.05529 121 109 87
0.789389 0.324163 2.0289 110 97 80
0.839013 0.333664 2.08505 96 79 69
0.8617 0.331835 2.07174 92 81 63
0.884001 0.33 2.05842 97 89 68
0.905914 0.328158 2.04509 102 94 75
0.933795 0.328624 2.04586 110 97 80
0.955594 0.326938 2.03353 106 92 79
0.970291 0.322926 2.00705 84 72 50
1.00406 0.325539 2.02093 118 101 93
1.0387 0.328325 2.03584 86 66 57
-1.22163 0.348143 2.14517 143 122 101
-1.19152 0.348646 2.14601 138 117 100
-1.17009 0.351747 2.16253 138 120 106
-1.1313 0.349651 2.14768 138 109 105
-1.11767 0.355367 2.17991 139 114 109
-1.10365 0.36126 2.21315 136 117 100
-1.07264 0.361778 2.21401 135 115 106
-1.04163 0.362296 2.21488 140 113 102
-1.01062 0.362813 2.21574 146 120 103
-0.987192 0.36612 2.23331 118 96 82
-0.96329 0.369435 2.2509 103 86 78
-0.931811 0.36996 2.25178 103 79 75
-0.893462 0.367684 2.23592 104 78 77
-0.868855 0.371011 2.25353 85 70 67
-0.843776 0.374345 2.27115 76 61 56
-0.812063 0.374875 2.27203 72 60 46
-0.780349 0.375404 2.27292 66 51 46
-0.737247 0.370292 2.24028 63 55 42
-0.716922 0.376463 2.27468 64 50 50
-0.664313 0.365678 2.20847 68 53 48
-0.62415 0.36086 2.17773 23 22 20
-0.568096 0.346017 2.08772 20 17 24
-0.545505 0.370577 2.2287 60 47 38
-0.522593 0.376791 2.26317 62 44 40
-0.483489 0.371612 2.23042 53 49 38
-0.459636 0.377841 2.26493 61 48 40
-0.428158 0.378367 2.2658 61 49 49
-0.393572 0.376028 2.24985 58 49 42
-0.396789 0.410963 2.45281 126 96 85
-0.365825 0.41491 2.47357 121 103 81
-0.331482 0.415483 2.47453 126 101 81
-0.299815 0.419613 2.49632 125 107 83
-0.267567 0.423753 2.51812 124 101 93
-0.232644 0.424336 2.51909 121 98 82
-0.19772 0.424919 2.52006 123 101 90
-0.162796 0.425502 2.52103 116 103 84
-0.129095 0.429666 2.54287 110 91 76
-0.093881 0.430254 2.54385 113 89 85
-0.0586668 0.430842 2.54484 110 85 78
-0.0234525 0.43143 2.54582 110 89 72
0.0116984 0.43579 2.56869 107 88 81
0.047217 0.436383 2.56968 95 79 66
0.0806282 0.422362 2.48601 43 33 34
0.110451 0.402793 2.37039 53 44 39
0.137561 0.384894 2.26464 87 72 65
0.158328 0.358142 2.10796 159 141 117
0.182817 0.348775 2.0519 147 135 113
0.207232 0.34215 2.01178 154 138 112
0.233423 0.340186 1.99857 154 132 109
0.259349 0.33839 1.98635 169 152 124
0.286677 0.338846 1.98712 169 146 128
0.315945 0.341564 2.00087 163 146 118
0.343452 0.342023 2.00164 163 139 115
0.368659 0.340214 1.9894 160 140 116
0.398467 0.342941 2.00317 167 149 127
0.425974 0.3434 2.00393 156 135 108
0.4478 0.339305 1.97866 177 149 127
0.47216 0.337654 1.9674 173 152 131
0.495941 0.335821 1.95512 146 133 116
0.522742 0.336269 1.95587 124 99 79
0.549544 0.336716 1.95661 144 127 107
0.583538 0.341571 1.98244 152 133 100
0.610685 0.342024 1.9832 143 128 97
0.637833 0.342477 1.98396 100 30 28
0.65675 0.338505 1.9596 90 30 29
0.679435 0.336826 1.94829 127 70 63
0.697149 0.332834 1.9239 113 89 65
0.746423 0.34429 1.98698 110 89 86
0.778569 0.347056 2.00082 106 89 79
0.795937 0.343058 1.97642 95 79 64
0.838583 0.350288 2.01543 86 75 71
0.855012 0.346103 1.99001 113 100 81
0.88216 0.346556 1.99076 132 114 110
0.909307 0.347009 1.99152 106 84 70
0.936455 0.347462 1.99227 90 73 65
0.957826 0.345761 1.98092 118 101 93
0.978369 0.343874 1.96856 85 70 75
1.01179 0.346661 1.98243 103 87 71
-1.2221 0.378247 2.14417 136 118 98
-1.2009 0.381567 2.16068 150 123 114
-1.17057 0.382073 2.16152 139 113 98
-1.1487 0.385403 2.17805 135 115 108
-1.12639 0.388741 2.19459 137 116 87
-1.10414 0.392264 2.21212 138 113 109
-1.07313 0.392781 2.21299 142 113 95
-1.04212 0.393299 2.21385 120 103 77
-1.02674 0.399857 2.2481 121 107 81
-0.958257 0.385617 2.16744 72 60 44
-0.921015 0.383273 2.15256 73 62 56
-0.871669 0.37557 2.10817 66 57 48
-0.848262 0.378741 2.12374 71 51 50
-0.824441 0.381919 2.13933 61 50 46
-0.800581 0.385283 2.15591 69 53 54
-0.764666 0.382917 2.14099 64 53 51
-0.740364 0.386288 2.15759 63 49 48
-0.704892 0.383915 2.14266 65 55 46
-0.675005 0.384414 2.14349 61 48 40
-0.650038 0.387796 2.1601 59 47 33
-0.543487 0.378268 2.10238 32 24 22
-0.533638 0.392704 2.17926 59 45 45
-0.495682 0.387407 2.14848 65 50 45
-0.469387 0.390811 2.16513 68 52 53
-0.442649 0.394223 2.1818 62 55 45
-0.412319 0.394729 2.18264 59 48 44
-0.379061 0.392319 2.16765 67 53 52
-0.343709 0.387163 2.13779 95 79 64
-0.366366 0.449247 2.47244 108 90 70
-0.334994 0.453663 2.4942 117 89 85
-0.303041 0.458089 2.51599 120 100 76
-0.268118 0.458672 2.51696 122 95 74
-0.233194 0.459255 2.51793 117 95 84
-0.19827 0.459838 2.5189 114 94 83
-0.163347 0.460421 2.51988 120 94 79
-0.12965 0.464876 2.54171 109 89 80
-0.0944362 0.465463 2.54269 110 88 75
-0.059222 0.466051 2.54367 113 91 80
-0.0240077 0.466639 2.54465 102 83 79
0.0110702 0.47538 2.5894 100 83 73
0.0468933 0.475978 2.5904 85 69 54
0.0795952 0.452984 2.46496 43 31 31
0.109205 0.431978 2.35038 49 35 32
0.137956 0.419298 2.28054 46 35 39
0.15787 0.387195 2.10699 130 109 92
0.182371 0.377039 2.05097 136 115 88
0.206795 0.369847 2.01086 160 141 124
0.230192 0.362824 1.97172 157 145 121
0.254304 0.358593 1.94751 160 139 122
0.277724 0.35435 1.9233 183 161 140
0.30239 0.352537 1.91204 157 138 106
0.32868 0.352976 1.91278 167 147 120
0.359389 0.358122 1.9385 169 143 126
0.386024 0.358567 1.93924 159 135 123
0.41266 0.359012 1.93999 157 136 107
0.441915 0.361724 1.95274 174 152 129
0.465931 0.359901 1.94147 172 119 113
0.489369 0.357883 1.92919 175 99 109
0.512707 0.356048 1.9179 180 149 129
0.532429 0.351929 1.89457 166 146 121
0.551775 0.347989 1.87223 153 133 100
0.584345 0.352795 1.89602 160 129 108
0.621647 0.360091 1.93287 142 100 84
0.648103 0.360532 1.93361 117 36 42
0.662217 0.354095 1.89819 155 104 101
0.679972 0.350129 1.8758 157 92 86
0.701536 0.34845 1.86546 149 99 88
0.727023 0.348875 1.86617 122 105 89
0.761667 0.353716 1.89001 106 90 77
0.801893 0.360875 1.92596 90 74 61
0.828182 0.361314 1.92669 115 89 74
0.854472 0.361753 1.92742 110 94 78
0.886204 0.364506 1.94024 81 69 53
0.901443 0.360312 1.91679 117 93 89
0.927567 0.360748 1.91752 116 100 74
0.95963 0.363508 1.93035 127 111 96
0.98592 0.363947 1.93108 107 95 45
-1.22257 0.408351 2.14317 139 118 99
-1.19247 0.408854 2.14401 131 113 91
-1.17973 0.41544 2.17619 135 115 106
-1.14918 0.41595 2.17704 134 110 100
-1.11863 0.41646 2.17789 129 113 100
-1.10463 0.423267 2.2111 134 113 96
-1.08191 0.427033 2.22863 136 113 105
-1.05066 0.427554 2.2295 131 114 96
-1.01942 0.428076 2.23037 74 63 45
-0.904759 0.392742 2.04761 75 58 68
-0.882155 0.395908 2.06216 73 61 49
-0.847447 0.393698 2.04921 67 58 51
-0.824456 0.396871 2.06377 82 58 48
-0.795606 0.397352 2.06457 60 47 41
-0.77241 0.400727 2.08013 67 54 48
-0.7488 0.404109 2.09571 63 60 51
-0.689501 0.387969 2.01184 51 41 32
-0.680209 0.399278 2.06779 68 61 45
-0.656183 0.402667 2.08337 64 52 54
-0.627126 0.403152 2.08418 65 57 38
-0.598069 0.403637 2.08499 49 41 38
-0.564811 0.401205 2.071 54 42 42
-0.532235 0.39896 2.05799 49 44 40
-0.510898 0.405092 2.08742 53 40 34
-0.481841 0.405577 2.08823 59 50 43
-0.456155 0.408994 2.10386 61 52 43
-0.42689 0.409482 2.10467 63 55 42
-0.397626 0.409971 2.10549 61 52 47
-0.365613 0.407517 2.09146 69 54 47
-0.334016 0.405057 2.07743 68 59 44
-0.366908 0.483585 2.4713 94 71 65
-0.332565 0.484158 2.47226 99 79 70
-0.303592 0.493008 2.51483 108 87 66
-0.268668 0.493591 2.5158 111 91 80
-0.233745 0.494173 2.51677 112 95 75
-0.198821 0.494756 2.51775 116 89 78
-0.16542 0.499497 2.53956 109 90 75
-0.130206 0.500085 2.54054 114 97 79
-0.0949914 0.500672 2.54152 110 87 69
-0.0597772 0.50126 2.5425 99 81 67
-0.0249403 0.506224 2.56535 108 85 79
0.0105054 0.511198 2.58821 103 82 77
0.046097 0.50741 2.56733 85 68 60
0.078571 0.483053 2.44393 39 29 27
0.108006 0.460837 2.33138 46 36 27
0.13746 0.450772 2.2795 44 36 33
0.162417 0.431469 2.18175 47 36 30
0.183041 0.40811 2.06398 138 122 97
0.205049 0.394734 1.99598 149 130 113
0.228476 0.387556 1.95885 167 147 120
0.252427 0.382976 1.93465 164 143 122
0.274065 0.375967 1.89846 163 143 119
0.296765 0.371765 1.87622 173 151 128
0.318827 0.367552 1.85397 165 141 117
0.344314 0.367977 1.85468 163 135 114
0.369801 0.368403 1.85539 170 130 122
0.393042 0.366599 1.84509 124 84 74
0.423174 0.371484 1.86781 139 100 93
0.451597 0.374349 1.88054 178 107 123
0.480105 0.377016 1.89227 169 102 109
0.503207 0.375211 1.88197 172 114 112
0.525732 0.373196 1.87067 181 157 131
0.548211 0.37138 1.86035 173 149 123
0.570386 0.36956 1.85003 168 146 122
0.592257 0.367734 1.8397 158 146 106
0.61744 0.368154 1.8404 162 125 107
0.646391 0.370828 1.85215 158 113 108
0.671726 0.371251 1.85286 150 127 111
0.688915 0.367156 1.83146 158 143 102
0.705495 0.363051 1.81004 151 133 95
0.725843 0.361199 1.79967 146 123 105
0.764006 0.368409 1.83355 97 76 71
0.807764 0.377904 1.87852 102 86 63
0.833403 0.378332 1.87924 108 82 81
0.859042 0.37876 1.87995 105 89 89
0.884682 0.379188 1.88066 101 92 75
0.90503 0.377336 1.87029 104 95 78
0.930517 0.377762 1.871 116 99 83
0.967703 0.382964 1.89491 99 81 57
-1.23218 0.441711 2.15782 133 110 94
-1.21076 0.445477 2.17432 139 109 101
-1.1889 0.449251 2.19084 129 106 98
-1.14966 0.446497 2.17603 129 108 89
-1.13612 0.453753 2.2092 131 110 91
-1.11364 0.45775 2.22673 131 108 94
-1.0824 0.458271 2.2276 127 104 98
-1.05116 0.458793 2.22847 121 105 90
-0.886466 0.412759 2.00544 62 51 47
-0.858391 0.413228 2.00622 72 54 54
-0.830316 0.413696 2.007 67 58 41
-0.807909 0.417052 2.02154 66 59 43
-0.768694 0.411742 1.9948 66 58 47
-0.746093 0.415102 2.00935 71 62 57
-0.70821 0.409983 1.98356 24 18 22
-0.675616 0.407544 1.97055 19 13 17
-0.648109 0.408003 1.97132 56 50 36
-0.6383 0.419884 2.02626 65 54 52
-0.610031 0.420355 2.02705 78 60 50
-0.577646 0.417914 2.01404 65 54 50
-0.549571 0.418382 2.01482 67 53 42
-0.514303 0.413219 1.98896 110 99 97
-0.489886 0.416396 2.00257 97 88 83
-0.465348 0.419788 2.01716 77 67 66
-0.437273 0.420257 2.01795 79 62 68
-0.409198 0.420725 2.01873 67 57 55
-0.375798 0.415531 1.99282 64 56 53
-0.355617 0.424602 2.03414 66 52 52
-0.324975 0.422131 2.02107 66 55 49
-0.37072 0.522341 2.49094 94 73 52
-0.336087 0.522919 2.49191 92 72 61
-0.304143 0.527926 2.51367 102 80 69
-0.269219 0.528509 2.51464 119 92 83
-0.236404 0.53353 2.53643 115 97 73
-0.199372 0.529675 2.51659 113 97 81
-0.165975 0.534706 2.53839 110 90 83
-0.130761 0.535294 2.53937 111 89 76
-0.0965376 0.540552 2.56219 104 81 67
-0.061019 0.541144 2.56318 105 87 77
-0.0255003 0.541737 2.56417 103 83 74
0.00985931 0.551914 2.60989 103 85 73
0.0460006 0.552517 2.61089 85 67 67
0.0780382 0.516837 2.44281 47 33 33
0.108182 0.49689 2.34823 43 36 26
0.136964 0.482246 2.27846 48 36 38
0.161943 0.461573 2.18075 45 31 31
0.18601 0.445785 2.10588 80 62 52
0.202189 0.416658 1.96916 145 133 111
0.225371 0.409163 1.93303 159 148 118
0.248982 0.404231 1.90884 157 118 101
0.270552 0.397135 1.87465 169 152 126
0.292938 0.39261 1.85241 165 149 124
0.316638 0.390662 1.84214 178 158 131
0.338093 0.386333 1.82087 173 156 128
0.35894 0.381995 1.79958 174 147 130
0.383666 0.382408 1.80027 171 127 124
0.408392 0.38282 1.80096 190 131 135
0.433118 0.383233 1.80165 172 145 118
0.460545 0.386034 1.81334 136 86 77
0.488276 0.38884 1.82505 116 29 37
0.513307 0.389258 1.82575 145 82 77
0.53518 0.38728 1.81542 162 148 119
0.560058 0.387695 1.81612 172 154 116
0.581474 0.385709 1.80578 178 158 131
0.599301 0.381533 1.7854 162 147 116
0.623737 0.381941 1.78608 155 131 107
0.651734 0.384539 1.7968 157 138 108
0.676308 0.384949 1.79749 152 133 100
0.700882 0.385359 1.79817 154 134 107
0.709149 0.376763 1.75765 156 140 107
0.72904 0.374965 1.74826 144 132 94
0.757162 0.377565 1.75899 126 103 95
0.808841 0.391848 1.82305 100 80 56
0.833719 0.392263 1.82374 109 90 76
0.858597 0.392678 1.82443 121 101 94
0.883475 0.393094 1.82512 104 84 75
0.908354 0.393509 1.82582 99 79 68
0.933232 0.393924 1.82651 107 90 83
-1.2418 0.475514 2.17246 128 104 78
-1.22016 0.479505 2.18896 124 106 94
-1.1807 0.476534 2.17416 127 108 93
-1.16762 0.484239 2.20731 134 114 103
-1.12784 0.481046 2.19153 130 109 92
-1.11413 0.488988 2.22569 126 111 92
-1.08289 0.48951 2.22656 121 106 99
-1.05971 0.493753 2.2441 97 79 77
-0.884139 0.425676 1.93802 76 57 61
-0.856991 0.426129 1.93877 73 61 61
-0.835469 0.429437 1.95229 78 60 56
-0.808141 0.429893 1.95305 64 58 44
-0.775549 0.427488 1.94104 77 60 52
-0.758572 0.43367 1.96735 62 54 43
-0.726159 0.431262 1.95533 66 56 44
-0.694106 0.428848 1.94331 40 34 36
-0.666959 0.429301 1.94407 50 40 38
-0.648543 0.435507 1.97041 65 48 40
-0.612664 0.430207 1.94558 54 47 39
-0.589522 0.433543 1.95914 68 58 48
-0.562195 0.433999 1.9599 63 49 49
-0.531221 0.431567 1.94785 58 52 40
-0.504074 0.43202 1.9486 64 52 52
-0.480213 0.435367 1.96218 64 53 49
-0.455992 0.438721 1.97577 60 46 45
-0.428485 0.43918 1.97654 65 56 49
-0.398231 0.436736 1.96447 60 47 54
-0.370903 0.437192 1.96523 47 38 33
-0.345963 0.440557 1.97884 56 49 43
-0.318456 0.441016 1.9796 44 42 29
-0.371266 0.556969 2.4898 74 59 52
-0.336633 0.557548 2.49076 93 72 51
-0.304693 0.562845 2.51251 101 81 82
-0.272173 0.568152 2.53428 94 81 65
-0.236959 0.56874 2.53527 99 83 68
-0.201745 0.569327 2.53625 110 92 72
-0.16653 0.569915 2.53723 111 94 74
-0.132616 0.575472 2.56003 100 83 75
-0.0970976 0.576065 2.56102 104 77 66
-0.061579 0.576658 2.56201 102 86 73
-0.0264473 0.582235 2.58484 94 78 65
0.00920319 0.593266 2.63154 96 82 73
0.0456627 0.593875 2.63255 87 73 60
0.0810219 0.584029 2.58784 37 32 29
0.109105 0.537991 2.38495 33 29 18
0.13559 0.509848 2.2605 50 45 41
0.162515 0.495325 2.19568 45 33 35
0.186741 0.478261 2.11985 50 34 44
0.204181 0.44974 1.99416 100 77 71
0.222278 0.430078 1.90723 110 35 32
0.24434 0.422506 1.87308 182 145 129
0.265569 0.415147 1.83989 174 155 125
0.289271 0.413047 1.82962 178 156 132
0.312668 0.410942 1.81934 173 153 126
0.333824 0.406305 1.79807 174 148 123
0.35646 0.404187 1.78777 179 168 138
0.374717 0.397459 1.75748 175 155 128
0.398861 0.397862 1.75816 166 143 125
0.420692 0.395958 1.74883 161 145 112
0.447151 0.398668 1.7595 155 134 105
0.471296 0.399071 1.76017 172 154 134
0.495441 0.399474 1.76085 157 124 93
0.516718 0.397561 1.7515 168 141 124
0.537718 0.395642 1.74215 165 146 114
0.567876 0.400683 1.76286 164 145 112
0.592021 0.401086 1.76354 161 140 121
0.609323 0.396838 1.74415 165 143 119
0.633191 0.397236 1.74481 156 141 110
0.650032 0.393207 1.7264 154 130 106
0.680927 0.398033 1.74614 145 129 96
0.704795 0.398431 1.74681 157 131 108
0.720848 0.394389 1.72838 168 149 119
0.73595 0.390104 1.70893 150 136 101
0.759278 0.390493 1.70958 135 107 83
0.791664 0.395571 1.73035 108 80 69
0.824136 0.400423 1.75013 110 100 88
0.862901 0.408103 1.78201 124 113 93
0.887198 0.408509 1.78269 103 93 68
0.905905 0.406325 1.77228 102 83 68
-1.25142 0.50976 2.18708 129 105 103
-1.22065 0.510273 2.18794 131 110 105
-1.18987 0.510787 2.1888 136 109 102
-1.16811 0.515242 2.20629 128 109 92
-1.1371 0.51576 2.20715 123 105 93
-1.11463 0.520227 2.22466 129 106 92
-1.09168 0.524702 2.24218 121 94 83
-0.861538 0.441169 1.8881 77 66 44
-0.835082 0.44161 1.88884 76 67 50
-0.808626 0.442052 1.88958 79 60 64
-0.782171 0.442493 1.89032 76 62 59
-0.750852 0.440128 1.87927 76 61 66
-0.734348 0.446421 1.90456 79 69 70
-0.717151 0.452725 1.92986 78 66 70
-0.685441 0.450126 1.91784 70 62 59
-0.654441 0.447755 1.90678 74 66 45
-0.627805 0.448199 1.90752 65 54 52
-0.60117 0.448644 1.90827 61 52 45
-0.574534 0.449088 1.90901 53 47 33
-0.547899 0.449533 1.90975 41 31 39
-0.521263 0.449978 1.91049 53 47 35
-0.49783 0.453257 1.92306 41 27 24
-0.477354 0.459616 1.94846 44 35 30
-0.453316 0.463147 1.96204 42 32 33
-0.425989 0.463603 1.9628 49 34 41
-0.398662 0.464059 1.96356 39 30 15
-0.371334 0.464515 1.96432 41 29 29
-0.344007 0.464971 1.96508 39 29 27
-0.31889 0.46852 1.97869 44 34 35
-0.371812 0.591597 2.48865 83 61 50
-0.340168 0.59718 2.51038 89 69 62
-0.307943 0.602773 2.53214 96 76 65
-0.272728 0.603361 2.53312 94 71 63
-0.237514 0.603949 2.5341 96 76 67
-0.2023 0.604536 2.53508 98 80 68
-0.167086 0.605124 2.53606 107 90 74
-0.133176 0.610986 2.55885 101 84 77
-0.0976576 0.611578 2.55984 103 82 79
-0.0635629 0.622979 2.60548 106 85 80
-0.0270121 0.618053 2.58366 107 87 78
0.00862834 0.62972 2.63033 105 83 72
0.0450879 0.630329 2.63135 96 75 70
0.0810022 0.625392 2.60951 35 27 25
0.111513 0.589796 2.46139 29 24 20
0.135098 0.541087 2.25947 38 29 34
0.162037 0.52565 2.19467 50 36 33
0.18628 0.507521 2.11888 43 33 31
0.208856 0.490567 2.04801 50 31 35
0.221863 0.456364 1.90636 96 29 38
0.241161 0.442725 1.8493 153 135 111
0.262213 0.435134 1.81712 175 154 137
0.282351 0.427527 1.78491 178 159 129
0.301901 0.420391 1.75467 171 154 128
0.324287 0.418358 1.74536 160 144 121
0.346396 0.41632 1.73604 161 140 119
0.370264 0.416718 1.73671 181 158 127
0.390002 0.412475 1.71839 134 71 66
0.411294 0.410423 1.70905 153 107 94
0.43231 0.408367 1.69971 172 147 127
0.450978 0.404346 1.68235 164 147 117
0.476513 0.406938 1.692 172 151 134
0.502296 0.409535 1.70166 100 79 74
0.528629 0.412381 1.71232 153 132 113
0.546125 0.4081 1.69394 159 141 103
0.569329 0.408487 1.69459 164 145 112
0.592533 0.408875 1.69523 168 143 121
0.612535 0.407042 1.68685 157 143 106
0.635614 0.407428 1.68749 162 141 114
0.658694 0.407813 1.68814 144 123 96
0.6778 0.405725 1.67874 146 132 105
0.708553 0.410811 1.69846 135 119 94
0.731757 0.411199 1.69911 150 130 103
0.746624 0.406874 1.68066 155 135 110
0.765491 0.405022 1.67224 147 126 99
0.78411 0.403167 1.66382 141 123 99
0.802479 0.401307 1.6554 113 94 80
0.833941 0.406165 1.67415 103 84 80
0.880633 0.418257 1.72213 93 77 61
-1.2519 0.540528 2.18606 132 109 93
-1.22113 0.541041 2.18692 137 116 95
-1.19036 0.541555 2.18778 120 103 93
-1.1686 0.546246 2.20526 124 97 90
-1.13759 0.546763 2.20612 120 106 80
-1.11512 0.551465 2.22362 122 99 93
-1.08388 0.551987 2.22449 119 100 96
-0.871324 0.458301 1.85123 66 63 58
-0.840297 0.456019 1.84118 58 50 47
-0.824772 0.462132 1.86444 53 48 29
-0.793451 0.4596 1.8534 46 36 45
-0.772525 0.463004 1.8659 44 32 34
-0.751267 0.466413 1.8784 39 29 30
-0.720278 0.463876 1.86735 39 35 36
-0.703221 0.47027 1.89165 46 38 35
-0.681496 0.473942 1.90516 41 32 33
-0.654861 0.474386 1.9059 45 33 35
-0.628225 0.474831 1.90664 39 32 26
-0.60159 0.475275 1.90738 43 32 30
-0.574954 0.47572 1.90813 34 28 32
-0.551856 0.47916 1.92068 42 36 22
-0.525054 0.479607 1.92143 39 34 31
-0.498253 0.480055 1.92217 39 28 34
-0.481075 0.490014 1.96037 32 27 23
-0.453747 0.49047 1.96113 32 31 29
-0.429352 0.494186 1.97472 34 30 21
-0.401845 0.494645 1.97548 41 30 36
-0.371765 0.491839 1.96342 34 27 19
-0.346831 0.495564 1.97701 49 37 39
-0.319323 0.496023 1.97778 43 35 33
-0.375642 0.631516 2.50826 69 55 46
-0.337725 0.626804 2.48847 83 64 58
-0.308498 0.637982 2.53097 92 70 59
-0.273283 0.63857 2.53195 88 74 63
-0.238069 0.639158 2.53293 94 78 65
-0.202855 0.639746 2.53391 95 75 66
-0.170869 0.651479 2.57848 100 86 77
-0.133736 0.646499 2.55768 99 73 72
-0.099223 0.652675 2.58047 98 78 67
-0.0641328 0.659115 2.60428 96 82 71
-0.0279915 0.659718 2.60529 101 82 67
0.0080535 0.666175 2.62912 86 69 59
0.044513 0.666783 2.63014 96 78 68
0.0804324 0.661528 2.60831 24 20 17
0.110975 0.623857 2.46027 25 22 17
0.139107 0.5948 2.34591 28 24 25
0.160519 0.551886 2.17776 48 37 35
0.184636 0.532943 2.10299 48 43 40
0.208411 0.518831 2.04707 49 39 37
0.228052 0.498542 1.96722 60 28 31
0.240759 0.468209 1.84846 156 126 115
0.258866 0.454511 1.79437 157 143 116
0.277375 0.44413 1.75319 173 153 126
0.298283 0.439388 1.73392 175 168 139
0.318814 0.434894 1.71564 136 113 97
0.340524 0.432711 1.70631 176 96 95
0.358296 0.425881 1.67902 181 109 129
0.379204 0.423684 1.66967 188 132 131
0.400066 0.421742 1.66132 182 127 120
0.420678 0.419795 1.65296 153 99 97
0.443371 0.420174 1.65359 169 152 122
0.46361 0.418221 1.64522 177 151 126
0.483886 0.416523 1.63785 151 136 107
0.503641 0.414562 1.62946 103 84 69
0.5288 0.417273 1.6391 141 126 97
0.545355 0.412967 1.62169 149 130 100
0.576448 0.420104 1.64837 156 136 112
0.599015 0.420481 1.64899 159 141 117
0.624907 0.423204 1.65865 168 151 121
