ply
format ascii 1.0
element vertex 1303
property float x
property float y
property float z
property uchar red
property uchar green
property uchar blue
end_header
0.290399 0.102861 2.5718 141 117 93
0.32821 0.104414 2.59505 138 110 86
0.363722 0.105059 2.59623 138 111 82
0.402446 0.106629 2.61951 139 111 87
0.438262 0.107279 2.6207 137 109 87
0.470258 0.106993 2.59976 135 111 83
0.50577 0.107638 2.60094 127 112 81
0.545711 0.10923 2.62426 129 102 91
0.586477 0.110876 2.64861 123 100 86
0.622611 0.111532 2.64981 133 104 88
0.658746 0.112188 2.65101 123 94 80
0.706687 0.11487 2.69859 120 99 80
0.743458 0.115538 2.69981 124 100 76
0.780229 0.116206 2.70103 117 94 76
0.817 0.116873 2.70225 118 95 79
0.853771 0.117541 2.70347 107 88 71
0.890541 0.118208 2.70469 103 85 73
0.935464 0.119969 2.73018 110 88 65
0.955952 0.118489 2.68387 110 86 74
0.975507 0.117032 2.63853 116 93 75
0.994552 0.115644 2.59517 124 102 81
1.00487 0.113349 2.53252 118 90 79
1.02286 0.1121 2.49313 125 98 89
1.03212 0.109983 2.43545 127 101 88
1.04066 0.107931 2.37974 126 97 93
1.05665 0.106803 2.34428 122 95 78
1.06469 0.10494 2.29355 135 107 95
1.07991 0.103916 2.26107 126 105 100
1.08685 0.102151 2.21331 131 97 96
1.10915 0.101964 2.19905 131 104 87
-1.17151 0.0870455 2.06226 126 108 94
-1.15106 0.0882152 2.07793 137 116 97
-1.1302 0.0893925 2.09361 142 124 112
-1.10094 0.0899236 2.09458 137 121 105
-1.07946 0.0911122 2.11028 139 122 106
-1.06512 0.0929694 2.14074 152 134 122
-1.04309 0.0942212 2.15746 145 123 112
-1.01299 0.0947676 2.15846 141 123 113
-0.982885 0.0953141 2.15945 155 128 109
-0.959967 0.0965819 2.1762 150 129 112
-0.929643 0.0971324 2.17721 148 127 106
-0.906062 0.0984122 2.19398 149 129 120
-0.875516 0.0989667 2.19499 154 132 118
-0.844971 0.0995213 2.19601 146 118 104
-0.833421 0.102393 2.24635 147 124 110
-0.802184 0.10296 2.24739 142 118 106
-0.770947 0.103527 2.24843 144 119 112
-0.745463 0.104894 2.26626 136 115 98
-0.713991 0.105466 2.2673 138 115 99
-0.687801 0.106846 2.28516 138 112 99
-0.661438 0.108283 2.30402 126 102 90
-0.634577 0.109729 2.3229 128 111 95
-0.602371 0.110314 2.32397 134 108 91
-0.579616 0.112696 2.3617 132 105 88
-0.546899 0.11329 2.36278 139 112 95
-0.514181 0.113884 2.36387 137 109 85
-0.481464 0.114478 2.36495 135 110 90
-0.452548 0.116015 2.3849 136 110 97
-0.423106 0.11756 2.40486 143 116 99
-0.389863 0.118164 2.40596 141 114 95
-0.359633 0.119724 2.42595 140 119 92
-0.326127 0.120332 2.42707 139 112 93
-0.295239 0.121958 2.44808 139 117 93
-0.261456 0.122571 2.4492 138 106 93
-0.229739 0.124212 2.47023 135 108 87
-0.195679 0.12483 2.47136 137 116 97
-0.16162 0.125448 2.47249 138 111 90
-0.12756 0.126067 2.47362 138 111 90
-0.093501 0.126685 2.47475 138 113 91
-0.0601231 0.128355 2.49585 132 116 90
-0.0257871 0.128979 2.49699 136 113 99
0.00841445 0.130718 2.51911 134 111 93
0.043041 0.131346 2.52026 128 102 87
0.0776676 0.131975 2.5214 124 106 86
0.112294 0.132603 2.52255 130 108 97
0.147948 0.134369 2.54472 132 111 82
0.182865 0.135002 2.54588 137 105 92
0.219391 0.136783 2.56808 131 107 79
0.254599 0.137423 2.56924 136 111 89
0.289806 0.138062 2.57041 134 106 94
0.327612 0.139919 2.59365 136 114 93
0.366027 0.141788 2.61691 135 111 87
0.401843 0.142438 2.6181 138 114 90
0.437659 0.143088 2.61929 130 113 85
0.473476 0.143738 2.62048 130 109 88
0.509292 0.144388 2.62166 131 104 85
0.545108 0.145039 2.62285 130 105 85
0.585868 0.147003 2.64719 130 101 85
0.627264 0.148979 2.67154 117 91 74
0.663717 0.149641 2.67275 106 91 72
0.688374 0.147639 2.62761 82 69 63
0.72419 0.14829 2.62879 75 61 50
0.766541 0.150283 2.65318 88 75 59
0.809528 0.152288 2.67759 88 70 60
0.83881 0.151595 2.65558 67 55 43
0.860292 0.149589 2.61133 76 56 45
0.888336 0.148927 2.59027 86 67 53
0.923544 0.149566 2.59144 108 84 80
0.966828 0.151523 2.61486 112 92 83
0.993959 0.150844 2.59378 111 93 79
1.01259 0.148947 2.55243 117 100 84
1.02229 0.145875 2.49179 109 96 80
1.03157 0.142956 2.43415 122 101 72
1.04797 0.141231 2.39672 120 100 75
1.05612 0.138504 2.34303 123 104 90
1.07205 0.136984 2.30958 116 104 82
1.0794 0.134455 2.25986 125 109 93
1.09421 0.133021 2.22838 124 105 90
1.10107 0.130696 2.18264 126 102 98
-1.18921 0.117583 2.09052 140 113 104
-1.16835 0.118968 2.10619 129 111 99
-1.13889 0.119503 2.10717 134 111 97
-1.1174 0.120899 2.12286 133 111 97
-1.09551 0.122302 2.13857 134 111 103
-1.08177 0.124698 2.17098 139 115 103
-1.05145 0.125249 2.17199 143 121 97
-1.02113 0.125799 2.173 143 121 110
-0.990802 0.126349 2.174 145 118 107
-0.967667 0.127843 2.19075 149 123 106
-0.94409 0.129344 2.20751 146 123 107
-0.920491 0.130912 2.22527 147 125 101
-0.889489 0.131475 2.2263 146 126 102
-0.858487 0.132038 2.22733 145 125 100
-0.84041 0.134647 2.26189 139 121 101
-0.808938 0.135218 2.26293 141 114 95
-0.777465 0.135789 2.26398 147 117 106
-0.75175 0.137396 2.28181 142 120 106
-0.720043 0.137972 2.28286 138 125 106
-0.693933 0.139653 2.3017 143 118 96
-0.667325 0.141343 2.32056 138 117 88
-0.635119 0.141928 2.32163 143 115 103
-0.607764 0.143632 2.34052 144 124 100
-0.580167 0.145407 2.36041 144 116 102
-0.552044 0.147192 2.38032 136 113 97
-0.514732 0.146595 2.36258 146 122 96
-0.482015 0.147189 2.36366 139 116 98
-0.453103 0.148988 2.3836 145 118 101
-0.423666 0.150797 2.40355 142 118 94
-0.387143 0.150186 2.38579 145 116 100
-0.360197 0.153223 2.42463 141 113 99
-0.326691 0.153832 2.42575 138 115 97
-0.295808 0.155734 2.44674 142 116 93
-0.264372 0.157646 2.46776 140 114 99
-0.230312 0.158264 2.46889 133 110 92
-0.196253 0.158882 2.47002 137 115 94
-0.16371 0.160815 2.49108 141 113 99
-0.129374 0.161438 2.49222 136 108 94
-0.0950375 0.162061 2.49336 134 111 93
-0.0607014 0.162685 2.4945 139 112 93
-0.0263654 0.163308 2.49563 143 117 100
0.00783125 0.165337 2.51774 138 113 93
0.0426089 0.167377 2.53987 110 90 79
0.0762223 0.163829 2.47906 156 140 125
0.110282 0.164447 2.48019 107 95 81
0.143367 0.163706 2.46132 156 138 118
0.175899 0.162955 2.44242 147 125 102
0.210933 0.164933 2.46356 134 114 90
0.248323 0.168294 2.50475 141 124 94
0.282659 0.168918 2.50589 151 134 108
0.319471 0.170995 2.52808 141 115 100
0.351332 0.170164 2.50817 139 120 106
0.39178 0.173716 2.55146 132 112 88
0.43355 0.177358 2.59579 133 105 93
0.465251 0.176458 2.57487 134 117 91
0.500459 0.177097 2.57604 138 113 93
0.540086 0.179292 2.59932 109 92 76
0.585259 0.18313 2.64576 94 81 65
0.616138 0.182148 2.62382 93 79 66
0.651954 0.182798 2.62501 79 67 51
0.671117 0.178787 2.56073 101 83 71
0.706034 0.17942 2.56188 79 64 57
0.746912 0.181571 2.58421 66 51 44
0.78867 0.183805 2.60757 56 45 39
0.824182 0.184449 2.60875 66 60 46
0.845702 0.181956 2.56652 77 64 55
0.873496 0.181052 2.54647 86 73 64
0.893648 0.178668 2.50619 97 78 71
0.927707 0.179286 2.50732 88 70 56
0.961767 0.179904 2.50845 102 79 71
0.995826 0.180523 2.50958 112 94 70
1.02172 0.179651 2.49046 117 97 70
1.03903 0.17735 2.45209 124 97 76
1.04742 0.173679 2.39544 125 103 89
1.05558 0.170206 2.34178 125 96 80
1.06364 0.166931 2.29111 118 99 69
1.07888 0.164995 2.25866 129 101 90
1.08584 0.161901 2.21095 128 101 82
1.10815 0.1613 2.19671 132 111 92
-1.19831 0.147894 2.10405 139 119 108
-1.17725 0.14949 2.11972 141 119 105
-1.15577 0.151093 2.13541 145 126 96
-1.12589 0.151635 2.1364 145 122 108
-1.09601 0.152178 2.13739 143 125 111
-1.08229 0.155016 2.16979 149 119 119
-1.05196 0.155567 2.17079 137 122 101
-1.02927 0.157273 2.18752 143 126 100
-0.998727 0.157827 2.18853 149 126 112
-0.975375 0.159546 2.20528 152 131 102
-0.944608 0.160104 2.2063 149 126 112
-0.921013 0.161908 2.22405 143 122 105
-0.890011 0.162471 2.22508 146 127 110
-0.865711 0.164287 2.24286 149 123 110
-0.84094 0.166113 2.26065 147 123 95
-0.809468 0.166684 2.26169 143 122 103
-0.783992 0.168522 2.27951 145 122 104
-0.752284 0.169097 2.28056 145 124 103
-0.726428 0.171023 2.29938 149 122 101
-0.700073 0.172958 2.31822 146 123 105
-0.667867 0.173542 2.31929 138 123 94
-0.635662 0.174127 2.32036 139 120 90
-0.608311 0.17608 2.33924 140 113 104
-0.580718 0.178118 2.35912 141 114 93
-0.548001 0.178712 2.3602 138 120 98
-0.515283 0.179306 2.36129 145 119 92
-0.486639 0.181363 2.38121 142 116 91
-0.453659 0.181962 2.3823 140 118 95
-0.424226 0.184033 2.40224 143 120 104
-0.394268 0.186114 2.4222 144 120 96
-0.360762 0.186723 2.42331 138 116 95
-0.327256 0.187331 2.42443 139 113 100
-0.299005 0.19108 2.46529 139 113 90
-0.264945 0.191698 2.46642 135 113 92
-0.23296 0.193897 2.48745 138 110 96
-0.198624 0.19452 2.48858 141 111 100
-0.164288 0.195144 2.48972 139 116 98
-0.129952 0.195767 2.49086 136 109 92
-0.0956158 0.19639 2.492 132 109 91
-0.0612797 0.197014 2.49314 135 115 91
-0.0269437 0.197637 2.49428 128 111 83
0.00710371 0.201653 2.53733 121 98 84
0.0418747 0.200585 2.51753 83 68 63
0.0756487 0.197881 2.47772 85 75 63
0.107007 0.19214 2.4009 142 130 108
0.139987 0.192739 2.402 159 142 114
0.172968 0.193337 2.40309 163 148 119
0.204502 0.192373 2.38517 154 141 106
0.237219 0.192966 2.38626 125 72 58
0.273881 0.196706 2.42541 127 92 62
0.309359 0.198888 2.44555 144 129 100
0.342865 0.199496 2.44666 151 128 97
0.376371 0.200104 2.44777 150 131 101
0.406854 0.19912 2.42982 152 130 109
0.440097 0.199724 2.43092 147 110 91
0.476889 0.201929 2.45111 124 95 77
0.506583 0.200931 2.43313 127 102 72
0.539827 0.201534 2.43423 115 82 63
0.568732 0.200522 2.41623 103 87 74
0.620599 0.207774 2.49581 94 75 71
0.654658 0.208392 2.49694 75 62 56
0.705446 0.21433 2.56051 43 33 31
0.717104 0.207908 2.47904 80 67 59
0.756837 0.210247 2.50033 75 60 55
0.790896 0.210865 2.50146 89 72 62
0.818453 0.209748 2.48241 94 79 72
0.845456 0.20862 2.46334 104 91 74
0.878962 0.209228 2.46445 75 67 48
0.898535 0.206509 2.42717 80 69 47
0.931516 0.207108 2.42826 99 81 69
0.957004 0.206033 2.41014 96 83 77
0.997476 0.208305 2.43045 107 87 78
1.02244 0.207221 2.41232 109 93 77
1.04688 0.206127 2.39416 107 90 72
1.05505 0.201907 2.34053 118 104 95
1.06312 0.197927 2.28989 122 98 88
1.07837 0.195534 2.25746 118 102 79
1.0932 0.193214 2.22601 129 108 81
1.10765 0.190968 2.19554 125 98 87
-1.20743 0.178619 2.11757 141 125 112
-1.17775 0.179158 2.11855 146 129 111
-1.15628 0.180968 2.13423 138 117 100
-1.1264 0.181511 2.13522 145 116 112
-1.10482 0.183419 2.1519 146 124 113
-1.0828 0.185334 2.16859 146 125 124
-1.06033 0.187258 2.1853 157 125 110
-1.02979 0.187812 2.18631 145 130 97
-1.00666 0.189748 2.20304 153 130 112
-0.98354 0.191778 2.22077 146 124 103
-0.952537 0.192341 2.2218 147 126 109
-0.921535 0.192904 2.22283 146 125 108
-0.897474 0.194951 2.24059 144 124 99
-0.866237 0.195518 2.24162 151 125 110
-0.841471 0.197579 2.25941 144 122 98
-0.809998 0.19815 2.26045 145 122 108
-0.784526 0.200223 2.27826 145 120 98
-0.758922 0.202393 2.29706 134 116 96
-0.732821 0.204572 2.31589 141 123 99
-0.695009 0.203553 2.29918 141 119 95
-0.66841 0.205742 2.31802 143 116 95
-0.641312 0.207939 2.33688 137 111 96
-0.608858 0.208528 2.33796 137 113 87
-0.586136 0.212541 2.37662 140 119 100
-0.557759 0.214856 2.39652 140 119 102
-0.520175 0.213738 2.37881 146 118 97
-0.491272 0.216063 2.39873 139 114 94
-0.458029 0.216666 2.39983 141 116 111
-0.428338 0.219005 2.41977 138 111 102
-0.394832 0.219614 2.42088 140 116 90
-0.361326 0.220222 2.42199 138 115 101
-0.330729 0.222672 2.44296 141 117 93
-0.299578 0.225133 2.46395 139 113 100
-0.265519 0.225751 2.46508 133 112 95
-0.23146 0.226369 2.46621 134 116 96
-0.199202 0.22885 2.48723 138 110 96
-0.166468 0.231433 2.50927 131 112 95
-0.13053 0.230096 2.48951 134 108 93
-0.0972149 0.232691 2.51157 129 110 93
-0.0625883 0.233319 2.51272 129 106 88
-0.0279617 0.233948 2.51386 123 101 87
0.00636637 0.23855 2.55691 120 101 84
0.0412915 0.235205 2.51616 113 96 86
0.0746638 0.230031 2.45641 133 117 91
0.105145 0.22149 2.36165 165 148 120
0.136731 0.220358 2.34474 155 140 119
0.16782 0.219217 2.32782 165 147 125
0.199776 0.219797 2.32888 156 138 118
0.231733 0.220377 2.32994 147 126 99
0.26369 0.220957 2.331 157 140 114
0.297759 0.223281 2.35008 159 133 116
0.332327 0.225614 2.36919 154 135 102
0.370294 0.229903 2.40836 121 103 79
0.403275 0.230502 2.40945 155 136 104
0.432973 0.229241 2.39148 153 138 107
0.462146 0.22797 2.3735 139 99 89
0.4946 0.22856 2.37457 161 135 110
0.523199 0.227373 2.35757 159 135 109
0.555404 0.227958 2.35863 138 120 96
0.58761 0.228543 2.3597 138 110 98
0.624419 0.230916 2.37888 58 45 36
0.661996 0.233398 2.39908 83 75 56
0.700098 0.23589 2.4193 94 84 59
0.721783 0.232684 2.38211 94 78 62
0.777879 0.240902 2.4598 91 72 68
0.792866 0.235774 2.40343 81 68 52
0.819147 0.234451 2.38534 87 72 69
0.851602 0.23504 2.38642 78 69 54
0.891018 0.237556 2.40668 112 98 85
0.902822 0.232559 2.3522 95 81 68
0.934779 0.23314 2.35327 85 68 60
0.952458 0.230145 2.31893 90 81 76
0.9911 0.232457 2.33718 91 78 62
1.02281 0.233032 2.33823 94 83 65
1.05452 0.233608 2.33928 120 92 88
1.0626 0.228923 2.28867 121 100 79
1.08549 0.227728 2.27247 121 96 89
1.09269 0.223311 2.22482 126 89 96
1.11472 0.222195 2.20959 124 101 87
-1.20792 0.208287 2.1164 146 125 104
-1.18666 0.210302 2.13206 139 115 103
-1.15678 0.210844 2.13305 140 119 98
-1.13543 0.212969 2.14972 147 126 107
-1.10532 0.213515 2.15071 146 131 102
-1.08331 0.215652 2.1674 143 121 108
-1.06085 0.217797 2.1841 137 125 111
-1.03795 0.21995 2.20081 151 122 114
-1.00718 0.220509 2.20183 150 126 116
-0.984062 0.222774 2.21955 145 128 110
-0.95306 0.223337 2.22058 145 122 104
-0.922058 0.2239 2.22161 150 130 106
-0.898 0.226182 2.23936 145 120 115
-0.866763 0.226749 2.24039 145 122 108
-0.842001 0.229045 2.25817 143 120 112
-0.810528 0.229616 2.25921 132 114 102
-0.78506 0.231924 2.27701 144 122 101
-0.759461 0.234343 2.2958 143 119 109
-0.727504 0.234923 2.29686 142 119 103
-0.701158 0.237356 2.31569 138 118 94
-0.658229 0.234227 2.28122 77 61 48
-0.57199 0.214945 2.09263 154 134 133
-0.614538 0.242946 2.35545 94 79 72
-0.586691 0.245514 2.37532 136 118 104
-0.558319 0.248092 2.39521 137 117 93
-0.525075 0.248696 2.39631 139 116 102
-0.495914 0.251288 2.41623 141 121 97
-0.462408 0.251896 2.41734 144 114 104
-0.432646 0.254608 2.43827 140 118 95
-0.395396 0.253113 2.41956 136 113 99
-0.36189 0.253721 2.42067 141 117 89
-0.331298 0.256448 2.44163 135 109 92
-0.300152 0.259185 2.46261 135 109 96
-0.268453 0.261932 2.4836 138 111 90
-0.234117 0.262555 2.48474 133 111 100
-0.201678 0.265424 2.50676 131 109 88
-0.167051 0.266053 2.5079 131 107 97
-0.132425 0.266682 2.50905 134 112 99
-0.0977981 0.26731 2.5102 125 103 89
-0.0639067 0.270205 2.53227 125 102 84
-0.0285449 0.268567 2.5125 125 101 89
0.0057734 0.273751 2.55552 117 98 83
0.040981 0.27439 2.55669 98 78 71
0.0745014 0.265986 2.47504 76 44 31
0.103368 0.250007 2.32444 154 140 113
0.134461 0.248617 2.30752 169 108 115
0.166168 0.249192 2.30857 161 112 107
0.19659 0.247899 2.29263 147 129 109
0.226541 0.246597 2.27667 164 147 121
0.256021 0.245286 2.2607 169 153 120
0.285032 0.243967 2.24471 159 145 108
0.318026 0.246411 2.26276 96 76 78
0.35149 0.248865 2.28082 89 79 70
0.385424 0.251327 2.2989 163 144 114
0.416897 0.251898 2.29994 152 136 111
0.448369 0.252469 2.30098 151 131 107
0.479842 0.253041 2.30203 150 128 107
0.511314 0.253612 2.30307 147 132 101
0.542787 0.254183 2.30412 162 136 119
0.574259 0.254755 2.30516 153 98 101
0.601388 0.253401 2.28911 153 82 98
0.632625 0.253968 2.29015 94 73 68
0.67349 0.258402 2.32541 90 66 66
0.705198 0.258977 2.32646 85 72 64
0.736906 0.259553 2.32751 84 72 60
0.774457 0.262189 2.3467 94 79 76
0.800321 0.260704 2.32961 98 81 73
0.826039 0.259325 2.31352 87 71 74
0.863736 0.261855 2.33172 82 67 64
0.888983 0.260468 2.31561 95 84 66
0.91376 0.259072 2.29948 107 91 75
0.931136 0.255696 2.26615 77 67 58
0.955159 0.254395 2.25099 97 80 62
0.978739 0.253085 2.23582 88 78 68
0.99469 0.249901 2.20445 87 71 58
1.03198 0.252315 2.22164 102 87 84
1.06208 0.252861 2.22264 107 87 78
1.09219 0.253408 2.22363 124 96 82
1.10665 0.250304 2.1932 124 106 70
-1.20842 0.237955 2.11523 147 121 104
-1.18716 0.240177 2.13088 144 122 101
-1.15728 0.240719 2.13188 148 126 103
-1.13593 0.243066 2.14853 144 126 116
-1.10583 0.243612 2.14953 144 127 101
-1.09191 0.247782 2.18188 143 121 107
-1.06923 0.250152 2.19858 147 115 102
-1.04659 0.252644 2.21627 145 120 98
-1.01559 0.253207 2.2173 141 118 104
-0.984584 0.25377 2.21833 147 125 111
-0.953582 0.254333 2.21936 152 130 107
-0.929764 0.256846 2.23709 141 123 103
-0.898526 0.257413 2.23813 145 127 113
-0.867289 0.25798 2.23916 145 125 100
-0.849009 0.262474 2.27365 143 119 109
-0.817302 0.26305 2.27471 140 114 99
-0.791956 0.265713 2.29348 144 118 101
-0.759999 0.266293 2.29454 140 119 100
-0.733906 0.268971 2.31335 134 109 102
-0.707315 0.271657 2.33217 139 112 93
-0.67486 0.272246 2.33325 24 14 15
-0.568215 0.242232 2.07668 28 27 23
-0.5318 0.239466 2.04998 54 43 37
-0.587247 0.278488 2.37402 141 114 103
-0.558878 0.281329 2.3939 146 113 98
-0.529985 0.284179 2.41379 137 113 101
-0.496479 0.284787 2.41491 137 114 100
-0.462973 0.285396 2.41602 134 112 91
-0.429467 0.286004 2.41713 142 118 94
-0.399432 0.288997 2.43806 136 114 93
-0.365649 0.289611 2.43918 133 114 100
-0.331867 0.290224 2.4403 135 115 91
-0.303367 0.295638 2.48111 131 103 91
-0.269031 0.296261 2.48225 136 110 95
-0.236888 0.299415 2.50424 130 106 82
-0.202261 0.300044 2.50539 125 103 90
-0.167634 0.300673 2.50654 125 102 88
-0.134329 0.303848 2.52857 124 105 88
-0.0994119 0.304482 2.52973 121 99 86
-0.0644948 0.305116 2.53089 124 103 86
-0.0295777 0.305749 2.53205 111 94 76
0.00518042 0.308951 2.55413 110 94 78
0.040388 0.30959 2.5553 100 84 69
0.0755957 0.310229 2.55647 73 60 51
0.10283 0.281957 2.32318 109 69 59
0.130679 0.271935 2.23839 166 112 125
0.159475 0.26854 2.20746 149 113 97
0.188592 0.26711 2.19248 145 123 102
0.220123 0.269641 2.20947 166 140 123
0.250447 0.270192 2.21048 169 149 124
0.280772 0.270742 2.21149 167 151 126
0.309004 0.269296 2.19648 164 140 104
0.336793 0.267842 2.18145 167 143 119
0.364298 0.266505 2.16742 160 141 109
0.393972 0.267044 2.1684 164 138 121
0.432393 0.273495 2.21652 158 138 105
0.465916 0.276062 2.23357 151 129 116
0.496461 0.276616 2.23459 158 139 109
0.523365 0.275146 2.21954 159 139 114
0.557553 0.277725 2.23661 141 122 89
0.584014 0.276247 2.22155 162 131 110
0.610032 0.274761 2.20647 152 133 100
0.644662 0.277348 2.22356 124 97 78
0.679735 0.279943 2.24067 101 88 80
0.71028 0.280498 2.24168 87 71 56
0.762564 0.289649 2.31019 86 70 55
0.776784 0.283664 2.25983 97 80 73
0.796283 0.280101 2.22859 107 92 69
0.832462 0.282716 2.24574 91 74 58
0.869085 0.285339 2.2629 118 103 84
0.887256 0.281752 2.23161 98 85 66
0.904542 0.278149 2.20029 87 72 67
0.934423 0.278691 2.20129 100 82 78
0.964305 0.279234 2.20228 88 74 65
0.994186 0.279776 2.20327 117 95 84
1.00324 0.274432 2.15872 108 84 72
1.0325 0.274963 2.15969 87 66 61
1.06176 0.275494 2.16066 98 80 60
1.09858 0.277999 2.17684 124 100 88
-1.21755 0.26951 2.12872 147 124 108
-1.18767 0.270052 2.12971 147 120 99
-1.16654 0.272616 2.14634 144 117 96
-1.13644 0.273162 2.14734 147 117 109
-1.11465 0.275738 2.164 142 122 98
-1.09242 0.278321 2.18068 144 132 108
-1.07811 0.283077 2.21402 142 125 105
-1.03898 0.281471 2.19839 145 125 114
-1.01611 0.284203 2.21608 142 123 108
-0.985106 0.284766 2.21711 148 124 98
-0.954104 0.285329 2.21814 147 122 118
-0.93029 0.288077 2.23586 143 118 96
-0.906006 0.290834 2.2536 139 116 100
-0.881251 0.2936 2.27135 137 112 105
-0.856407 0.296503 2.2901 142 117 95
-0.82445 0.297083 2.29116 142 117 113
-0.792494 0.297663 2.29223 137 115 92
-0.766654 0.300585 2.31101 136 115 96
-0.734448 0.30117 2.31208 146 125 108
-0.702243 0.301754 2.31315 136 113 97
-0.670037 0.302339 2.31422 33 23 21
-0.568701 0.27107 2.07554 19 19 11
-0.625925 0.313358 2.39038 51 37 34
-0.597561 0.316462 2.41025 131 109 96
-0.559438 0.314565 2.39259 132 109 93
-0.530549 0.317678 2.41247 137 114 100
-0.497043 0.318287 2.41359 136 110 95
-0.467567 0.321547 2.43448 133 112 95
-0.433784 0.32216 2.43561 139 112 103
-0.400001 0.322773 2.43673 138 109 91
-0.369418 0.326053 2.45766 132 109 95
-0.335359 0.326672 2.45879 133 107 94
-0.303946 0.329967 2.47976 134 108 93
-0.272097 0.333406 2.50173 128 111 95
-0.237471 0.334035 2.50288 129 104 107
-0.204751 0.33749 2.52488 116 99 79
-0.169834 0.338124 2.52604 119 97 83
-0.134917 0.338758 2.5272 120 101 86
-0.1 0.339392 2.52836 122 99 93
-0.0650828 0.340026 2.52951 116 98 84
-0.0301657 0.340659 2.53067 117 94 86
0.00441571 0.347146 2.57465 113 90 82
0.0399277 0.347791 2.57583 98 77 72
0.0750027 0.34543 2.55508 76 59 52
0.104145 0.321434 2.37676 39 26 35
0.130969 0.305026 2.25414 124 93 91
0.157 0.294463 2.17433 152 134 110
0.184626 0.290877 2.14536 166 149 133
0.211421 0.287276 2.11637 158 141 115
0.23893 0.285731 2.10234 139 123 110
0.269524 0.288331 2.1183 119 105 96
0.300534 0.290937 2.13427 162 144 120
0.331958 0.293551 2.15025 166 149 123
0.356679 0.289913 2.12119 170 153 123
0.38315 0.28835 2.10713 168 152 129
0.409392 0.286918 2.09406 153 136 116
0.435246 0.28548 2.08097 139 101 80
0.479291 0.296226 2.15514 116 83 66
0.512168 0.298867 2.17117 155 129 116
0.541842 0.299405 2.17216 156 126 116
0.571516 0.299944 2.17314 136 91 85
0.597157 0.298366 2.15905 120 35 32
0.618142 0.294659 2.12987 150 133 105
0.638594 0.291079 2.10166 145 124 105
0.671589 0.293586 2.1167 127 106 89
0.705297 0.296241 2.13276 83 66 56
0.754631 0.305312 2.19416 90 71 65
0.779234 0.303715 2.18003 96 83 77
0.797937 0.299967 2.15077 104 91 74
0.827196 0.300498 2.15174 93 78 75
0.874157 0.307482 2.19812 100 82 70
0.885714 0.30156 2.15369 90 79 57
0.908657 0.299933 2.13951 107 95 79
0.925097 0.29628 2.11117 92 73 59
0.953747 0.2968 2.11212 91 73 69
0.995811 0.301515 2.1424 109 101 82
1.01105 0.297841 2.11402 100 85 82
1.0397 0.298361 2.11497 104 88 62
1.06835 0.298881 2.11592 105 80 83
-1.21805 0.299385 2.12754 150 123 116
-1.19715 0.302166 2.14416 152 121 100
-1.16705 0.302713 2.14516 137 117 93
-1.13695 0.303259 2.14616 144 117 110
-1.11516 0.306056 2.16281 142 121 102
-1.10103 0.311115 2.19513 143 120 102
-1.07863 0.314073 2.2128 139 125 98
-1.05577 0.31704 2.23048 139 112 101
-1.02453 0.317607 2.23152 138 114 102
-0.99329 0.318174 2.23256 134 111 95
-0.962053 0.318741 2.23359 140 123 93
-0.930816 0.319308 2.23463 141 117 105
-0.913493 0.324725 2.26905 143 115 103
-0.875063 0.322872 2.2534 142 116 93
-0.856945 0.328453 2.28885 139 119 95
-0.831608 0.331615 2.30761 136 118 98
-0.799402 0.332199 2.30867 134 114 90
-0.773317 0.335374 2.32746 138 116 102
-0.740863 0.335964 2.32854 132 111 92
-0.708408 0.336553 2.32961 129 115 86
-0.67058 0.334538 2.31295 33 27 11
-0.569187 0.299908 2.07441 24 22 23
-0.621338 0.343837 2.37033 40 26 25
-0.593242 0.347198 2.39018 121 98 80
-0.564619 0.350569 2.41004 125 103 90
-0.531113 0.351178 2.41115 113 98 79
-0.501918 0.354709 2.43203 112 91 64
-0.468136 0.355323 2.43315 112 96 70
-0.434353 0.355936 2.43427 106 89 71
-0.40057 0.356549 2.4354 126 108 84
-0.369992 0.360106 2.45632 122 104 84
-0.335932 0.360724 2.45745 122 104 80
-0.304524 0.364296 2.4784 124 100 88
-0.272681 0.368026 2.50036 126 103 87
-0.240256 0.371766 2.52235 118 99 84
-0.205339 0.3724 2.5235 125 103 79
-0.170422 0.373034 2.52466 115 91 81
-0.135505 0.373668 2.52582 117 94 86
-0.101628 0.377435 2.54785 114 92 78
-0.0664208 0.378074 2.54902 115 91 81
-0.0312132 0.378713 2.55019 111 87 75
0.0038176 0.382651 2.57325 105 83 72
0.0393296 0.383295 2.57443 103 80 72
0.0739975 0.377471 2.53277 52 42 40
0.10423 0.357008 2.39441 42 34 31
0.128886 0.331041 2.22002 133 120 103
0.153746 0.317535 2.12826 165 149 124
0.181881 0.315794 2.11426 169 151 127
0.208357 0.311922 2.08627 172 153 123
0.23557 0.310315 2.07324 170 153 125
0.264027 0.310832 2.07418 150 134 111
0.292484 0.311348 2.07513 94 79 72
0.32094 0.311865 2.07607 146 131 102
0.351608 0.314523 2.09102 154 132 109
0.380259 0.315043 2.09198 167 148 116
0.401112 0.309118 2.05086 176 152 126
0.426389 0.307476 2.03776 171 151 127
0.451492 0.30598 2.02565 160 133 114
0.479187 0.306483 2.02657 114 77 68
0.516763 0.313318 2.06863 114 51 44
0.552161 0.318163 2.09768 110 40 32
0.584572 0.320853 2.11269 129 73 58
0.605506 0.317031 2.08551 158 130 109
0.629815 0.315371 2.07238 158 133 111
0.653736 0.313704 2.05924 153 129 101
0.677269 0.31203 2.04608 148 126 105
0.700753 0.310505 2.03392 104 90 79
0.757636 0.323995 2.11843 87 74 68
0.78648 0.324518 2.11939 90 75 70
0.788772 0.314054 2.04978 90 78 64
0.838663 0.323364 2.10719 93 76 66
0.867314 0.323885 2.10814 94 76 64
0.884181 0.319988 2.08082 89 78 58
0.912444 0.320501 2.08176 101 91 79
0.92815 0.316584 2.05441 101 85 69
0.956025 0.31709 2.05533 93 75 61
0.977711 0.315533 2.04311 109 89 82
1.01178 0.318102 2.05718 90 70 71
1.04671 0.320838 2.07228 110 95 72
-1.22776 0.331716 2.14197 134 113 94
-1.19766 0.332263 2.14297 142 116 101
-1.16756 0.332809 2.14397 140 122 98
-1.15454 0.338291 2.17624 144 121 107
-1.11567 0.336374 2.16161 140 122 100
-1.11016 0.344506 2.21055 136 119 111
-1.07916 0.345069 2.21158 140 120 95
-1.04815 0.345632 2.21261 136 112 100
-1.02505 0.348838 2.23029 142 115 94
-0.993817 0.349405 2.23132 136 119 99
-0.962579 0.349972 2.23236 130 113 97
-0.931342 0.350539 2.2334 118 102 87
-0.914026 0.356427 2.2678 118 100 86
-0.882319 0.357002 2.26885 109 95 84
-0.864356 0.363229 2.30527 113 102 82
-0.825527 0.360984 2.28865 96 77 70
-0.799944 0.364399 2.3074 96 75 70
-0.767739 0.364983 2.30847 90 74 61
-0.729657 0.362724 2.29183 84 67 60
-0.703328 0.366152 2.31061 83 69 60
-0.561694 0.324302 2.04568 34 24 23
-0.540829 0.32927 2.07423 27 17 16
-0.565243 0.362758 2.27937 52 46 34
-0.537917 0.366205 2.29819 57 46 42
-0.501827 0.363909 2.28148 62 49 43
-0.485872 0.376165 2.35464 65 52 44
-0.434979 0.362336 2.26678 65 57 46
-0.406705 0.365636 2.28464 64 54 52
-0.401139 0.390325 2.43406 107 82 75
-0.370565 0.394158 2.45498 124 101 87
-0.336506 0.394777 2.45611 127 101 88
-0.30789 0.402017 2.49785 120 98 84
-0.275762 0.406042 2.51981 125 101 91
-0.238637 0.403274 2.50015 126 103 89
-0.205927 0.40731 2.52213 117 98 92
-0.17101 0.407944 2.52329 115 96 82
-0.136093 0.408578 2.52445 111 92 75
-0.102221 0.412635 2.54646 117 95 81
-0.0670138 0.413274 2.54763 119 96 82
-0.0318061 0.413913 2.5488 107 91 68
0.0032195 0.418155 2.57185 106 93 74
0.0387315 0.4188 2.57303 102 84 72
0.0734094 0.412381 2.5314 51 42 33
0.103674 0.389982 2.39311 45 37 35
0.133172 0.378387 2.32046 61 46 39
0.153253 0.346788 2.12711 156 142 116
0.178178 0.337733 2.07023 164 153 133
0.202915 0.331297 2.02926 160 144 119
0.229459 0.329648 2.01721 154 139 118
0.257155 0.330151 2.01813 165 148 118
0.286542 0.332815 2.03204 166 146 122
0.312546 0.331156 2.01996 150 128 104
0.340242 0.331659 2.02088 161 140 111
0.367938 0.332162 2.0218 158 137 110
0.398044 0.334839 2.03574 172 152 128
0.42054 0.330822 2.00962 171 155 129
0.445272 0.32914 1.9975 171 150 129
0.469645 0.327452 1.98538 163 148 125
0.493898 0.325925 1.97424 116 105 87
0.517565 0.324223 1.96209 137 115 92
0.551072 0.32893 1.98808 150 130 105
0.585552 0.333818 2.01509 152 132 107
0.613055 0.334317 2.01601 157 137 112
0.636528 0.332612 2.00385 152 125 108
0.659641 0.330901 1.99168 126 87 70
0.674293 0.325102 1.95536 123 94 78
0.700924 0.325585 1.95624 105 77 74
0.750565 0.336813 2.02057 115 103 91
0.773139 0.335092 2.00838 111 101 91
0.795353 0.333364 1.99619 104 92 70
0.838766 0.340709 2.03743 105 90 71
0.860573 0.33881 2.02422 100 86 75
0.888075 0.339309 2.02513 102 85 78
0.90975 0.337572 2.01292 100 80 89
0.937072 0.338068 2.01382 102 87 64
0.952496 0.33425 1.98946 101 86 65
0.973106 0.332493 1.97721 117 101 86
1.01904 0.339556 2.01654 79 64 57
-1.23748 0.36449 2.15639 139 118 99
-1.19817 0.36236 2.14179 129 110 96
-1.1856 0.368276 2.17403 142 117 113
-1.14651 0.366142 2.15941 136 115 96
-1.12451 0.369385 2.17605 133 114 100
-1.11068 0.375502 2.20933 137 118 103
-1.08805 0.378935 2.22698 134 113 82
-1.05682 0.379502 2.22802 135 111 101
-1.02558 0.380069 2.22906 137 115 94
-0.986672 0.377753 2.21344 70 51 55
-0.93424 0.369995 2.16646 75 61 50
-0.890363 0.365103 2.13609 69 56 50
-0.867036 0.368371 2.15278 68 53 50
-0.843267 0.371646 2.16947 78 65 56
-0.812943 0.372197 2.17048 68 53 48
-0.782619 0.372747 2.17149 68 58 49
-0.746625 0.370557 2.15677 59 50 41
-0.72197 0.373848 2.1735 56 46 44
-0.691646 0.374399 2.17451 64 56 33
-0.661322 0.374949 2.17551 59 49 47
-0.621429 0.369985 2.14501 39 35 36
-0.570159 0.357585 2.07213 77 66 60
-0.549455 0.363293 2.10265 14 10 9
-0.544145 0.379921 2.19531 47 49 36
-0.5136 0.380475 2.19632 58 43 40
-0.483054 0.38103 2.19734 61 51 49
-0.452509 0.381584 2.19835 60 50 38
-0.421963 0.382139 2.19937 64 49 44
-0.391417 0.382693 2.20038 59 46 38
-0.35808 0.380454 2.18557 72 59 50
-0.377727 0.435379 2.49419 114 95 78
-0.340017 0.432331 2.47456 123 101 80
-0.308474 0.436636 2.49649 121 100 79
-0.27635 0.440952 2.51844 117 98 83
-0.241433 0.441586 2.51959 122 98 86
-0.206516 0.44222 2.52075 109 93 80
-0.171598 0.442854 2.52191 116 92 80
-0.138022 0.447196 2.54391 107 92 69
-0.102814 0.447836 2.54508 116 92 92
-0.0676067 0.448475 2.54625 110 92 78
-0.0323991 0.449114 2.54741 107 89 75
0.0026214 0.45366 2.57045 105 86 79
0.0381334 0.454305 2.57163 95 76 69
0.0732238 0.451031 2.55092 46 37 28
0.102492 0.419567 2.37289 45 35 33
0.132634 0.410337 2.3192 45 32 41
0.153671 0.378723 2.1409 116 96 85
0.176656 0.363676 2.05515 142 126 101
0.201297 0.356835 2.0152 146 127 112
0.226234 0.352489 1.98917 142 128 101
0.250656 0.348488 1.96512 148 127 110
0.274387 0.344475 1.94105 181 160 139
0.301017 0.344959 1.94193 164 142 119
0.331585 0.349957 1.96781 167 146 117
0.358562 0.350447 1.9687 165 144 113
0.385538 0.350937 1.9696 162 135 118
0.412515 0.351427 1.97049 164 147 121
0.439491 0.351916 1.97139 175 150 130
0.460801 0.347859 1.94724 174 151 120
0.487431 0.348343 1.94812 181 137 128
0.507703 0.344267 1.92393 172 145 128
0.53077 0.342552 1.91276 155 132 118
0.556888 0.343027 1.91363 153 128 97
0.590107 0.347896 1.9386 152 132 105
0.620584 0.35076 1.95254 129 82 62
0.647214 0.351243 1.95342 102 21 18
0.661363 0.344923 1.9171 172 112 102
0.683267 0.343188 1.90589 103 22 31
0.705205 0.341631 1.89568 109 44 22
0.739719 0.346346 1.9197 104 80 68
0.77055 0.349038 1.93265 99 79 72
0.806997 0.354144 1.95872 104 87 80
0.838672 0.356852 1.97171 100 87 71
0.860258 0.355111 1.96049 103 83 72
0.892265 0.357825 1.97349 110 93 73
0.907515 0.353658 1.94913 105 83 85
0.933966 0.354138 1.95001 111 92 78
0.960417 0.354618 1.95089 101 88 79
0.980827 0.352856 1.93963 97 76 73
-1.22878 0.39191 2.1396 133 109 107
-1.21666 0.398261 2.17181 132 113 98
-1.18612 0.398815 2.17282 136 119 103
-1.15557 0.39937 2.17384 138 121 95
-1.13335 0.402839 2.19048 131 110 93
-1.1112 0.406498 2.20811 132 110 99
-1.08858 0.410165 2.22575 132 107 103
-1.05734 0.410732 2.22679 133 111 100
-1.02611 0.4113 2.22783 130 113 95
-0.901056 0.386172 2.08985 68 56 58
-0.86544 0.383945 2.07612 70 58 62
-0.842538 0.387235 2.09179 71 57 54
-0.813279 0.387766 2.09276 70 61 46
-0.789754 0.391067 2.10845 63 52 46
-0.760287 0.391602 2.10943 60 52 41
-0.730821 0.392136 2.11041 57 43 42
-0.701354 0.392671 2.11139 63 54 47
-0.671888 0.393206 2.11236 69 55 46
-0.647117 0.39653 2.12809 65 52 43
-0.599488 0.385899 2.07004 48 41 33
-0.570644 0.386423 2.071 29 28 23
-0.545874 0.389746 2.08673 37 32 36
-0.528421 0.398685 2.13203 70 56 56
-0.498747 0.399223 2.13302 53 50 33
-0.469073 0.399762 2.134 62 49 41
-0.439399 0.400301 2.13499 62 52 50
-0.409725 0.400839 2.13597 67 54 46
-0.377223 0.398555 2.12214 68 55 47
-0.345135 0.396264 2.1083 67 57 48
-0.374931 0.466037 2.47206 102 82 73
-0.343683 0.470627 2.49397 107 85 72
-0.311855 0.475229 2.5159 111 94 78
-0.276938 0.475863 2.51706 117 95 84
-0.242021 0.476496 2.51822 112 94 82
-0.207104 0.47713 2.51938 115 98 82
-0.173823 0.481758 2.54135 116 91 84
-0.138615 0.482397 2.54252 109 94 73
-0.103407 0.483036 2.54369 110 91 74
-0.0681997 0.483675 2.54486 103 87 74
-0.0329921 0.484314 2.54603 105 89 76
0.00183106 0.493376 2.59091 101 85 70
0.0376474 0.494027 2.5921 90 74 59
0.0714382 0.47414 2.48688 47 37 36
0.102563 0.455929 2.39051 46 36 37
0.131257 0.438824 2.30002 52 41 45
0.157888 0.423214 2.21742 40 31 26
0.177219 0.394634 2.06799 135 120 97
0.201976 0.387037 2.02706 149 133 120
0.224449 0.377291 1.97513 159 148 120
0.247308 0.370617 1.93912 160 140 116
0.270698 0.366252 1.91505 155 138 112
0.29354 0.362068 1.89195 181 162 130
0.317763 0.3604 1.88182 153 134 119
0.34151 0.358532 1.87068 163 137 122
0.367145 0.358998 1.87153 172 142 118
0.397351 0.363953 1.8954 158 133 126
0.425855 0.366769 1.90827 160 127 110
0.449256 0.364895 1.89712 171 118 126
0.478092 0.367718 1.91 181 110 118
0.501162 0.365837 1.89884 169 99 107
0.527114 0.366308 1.8997 175 158 132
0.543487 0.360092 1.86645 171 152 120
0.565717 0.358388 1.85626 157 140 114
0.591047 0.358847 1.8571 146 132 106
0.616377 0.359307 1.85794 156 122 110
0.649124 0.364117 1.88089 165 98 115
0.670898 0.362404 1.87068 150 120 92
0.692368 0.360687 1.86046 160 134 111
0.709368 0.35678 1.83916 153 139 100
0.734394 0.357235 1.83999 137 120 100
0.768358 0.362066 1.86298 115 97 93
0.812594 0.371491 1.90918 109 92 84
0.833773 0.369768 1.89895 109 93 77
0.859573 0.370236 1.8998 109 84 87
0.890451 0.372904 1.91176 114 95 78
0.905469 0.36877 1.8894 102 85 67
0.931103 0.369236 1.89025 99 80 84
0.974347 0.376726 1.92647 120 104 81
-1.2385 0.425126 2.154 128 111 95
-1.20818 0.425677 2.15501 138 121 95
-1.18663 0.429355 2.17162 134 116 92
-1.16464 0.433041 2.18824 136 111 104
-1.13387 0.433599 2.18926 131 114 88
-1.11172 0.437494 2.20689 131 114 94
-1.08911 0.441396 2.22452 132 109 95
-1.06602 0.445308 2.24218 122 105 77
-1.02663 0.44253 2.2266 75 66 49
-0.898288 0.400694 2.01728 74 65 48
-0.876155 0.403972 2.03193 59 45 42
-0.841762 0.40172 2.01916 66 57 48
-0.813499 0.402233 2.0201 75 59 60
-0.785236 0.402746 2.02104 60 47 39
-0.762328 0.406038 2.0357 71 57 57
-0.723549 0.40099 2.00918 45 35 34
-0.67632 0.390754 1.9571 41 37 28
-0.662637 0.39922 1.99729 29 21 10
-0.648502 0.408104 2.03948 68 52 65
-0.624432 0.411417 2.05419 67 60 50
-0.591588 0.409137 2.04137 63 47 57
-0.563132 0.409654 2.04231 63 50 44
-0.523259 0.40175 2.00192 39 30 35
-0.498995 0.405066 2.01663 44 43 39
-0.474344 0.40839 2.03135 127 115 101
-0.446081 0.408903 2.03229 51 44 38
-0.417818 0.409416 2.03323 80 66 66
-0.395229 0.415578 2.06179 65 60 67
-0.363936 0.41327 2.04892 35 20 13
-0.335479 0.413787 2.04987 71 54 44
-0.375509 0.500366 2.47071 94 74 65
-0.344267 0.505247 2.49261 100 82 62
-0.312443 0.510139 2.51453 109 82 63
-0.277526 0.510773 2.51568 107 84 76
-0.242609 0.511406 2.51684 117 94 80
-0.209623 0.516319 2.5388 111 90 73
-0.174416 0.516958 2.53997 117 89 77
-0.139208 0.517597 2.54113 111 91 82
-0.104 0.518237 2.5423 111 88 80
-0.0695988 0.52338 2.5653 102 81 76
-0.0340868 0.524025 2.56648 107 81 80
0.00122783 0.529186 2.5895 102 86 73
0.0370441 0.529836 2.59069 93 76 69
0.0708599 0.508469 2.48552 39 32 22
0.102008 0.488903 2.38921 43 36 26
0.129934 0.467018 2.28186 54 44 43
0.15641 0.450449 2.20029 45 34 32
0.181034 0.435078 2.12462 56 44 28
0.200364 0.412216 2.01301 150 128 117
0.222771 0.40194 1.9621 164 147 119
0.245357 0.394544 1.92511 178 157 126
0.268703 0.390038 1.90204 170 152 130
0.291528 0.385727 1.87995 162 141 114
0.313717 0.381405 1.85784 170 152 128
0.33544 0.37728 1.83671 170 148 125
0.358586 0.375441 1.82655 165 128 120
0.381428 0.373596 1.81638 170 121 114
0.406301 0.374047 1.8172 171 109 120
0.428687 0.372194 1.80702 162 107 102
0.458689 0.377258 1.82987 139 70 73
0.4893 0.382333 1.85274 148 63 68
0.511685 0.38048 1.84255 151 121 95
0.536863 0.380937 1.84339 169 148 127
0.558792 0.379075 1.83319 169 153 120
0.580417 0.377208 1.82298 178 157 130
0.601737 0.375335 1.81276 164 136 125
0.622752 0.373457 1.80253 160 143 117
0.65118 0.376233 1.8144 159 142 116
0.679911 0.379014 1.82628 142 123 93
0.69646 0.374795 1.80498 159 143 117
0.713185 0.37099 1.78567 159 138 107
0.733011 0.369091 1.7754 144 127 107
0.765969 0.374003 1.79735 120 107 73
0.813821 0.385965 1.85258 121 103 89
0.834076 0.384073 1.84233 106 90 74
0.864177 0.386879 1.85425 107 89 65
0.884127 0.384981 1.84399 107 89 75
0.909153 0.385436 1.84482 121 105 80
0.939711 0.38825 1.85676 110 97 78
-1.24824 0.458785 2.16839 141 115 100
-1.21769 0.45934 2.1694 125 114 86
-1.18715 0.459894 2.17042 129 108 89
-1.16516 0.463801 2.18703 126 105 88
-1.14325 0.467927 2.20463 129 107 96
-1.12087 0.47206 2.22226 131 107 95
-1.09802 0.476202 2.23989 120 104 88
-1.0584 0.473194 2.22433 119 99 92
-0.868035 0.414599 1.94968 62 58 49
-0.840713 0.415095 1.95059 73 64 47
-0.818906 0.418341 1.96422 76 63 55
-0.791404 0.418841 1.96513 76 59 52
-0.769453 0.422309 1.97976 68 56 42
-0.741758 0.422812 1.98068 70 52 52
-0.708898 0.420338 1.96787 39 31 28
-0.67678 0.418071 1.95603 34 31 24
-0.653893 0.421337 1.96969 59 58 38
-0.630975 0.424823 1.98435 67 56 54
-0.598889 0.422335 1.97152 69 61 42
-0.571387 0.422835 1.97243 57 48 41
-0.543885 0.423334 1.97334 68 56 58
-0.512846 0.421047 1.96147 199 184 187
-0.488881 0.424332 1.97517 171 161 159
-0.4648 0.427839 1.98987 113 100 110
-0.433877 0.425331 1.97699 105 96 97
-0.406375 0.42583 1.97791 103 92 96
-0.376235 0.423527 1.966 100 90 91
-0.351371 0.426829 1.97973 60 51 46
-0.326322 0.430353 1.99446 65 54 50
-0.296367 0.427827 1.98156 83 68 61
-0.34485 0.539867 2.49125 92 80 68
-0.313031 0.545049 2.51315 93 74 60
-0.278114 0.545683 2.51431 98 83 64
-0.245424 0.55088 2.53624 101 82 67
-0.210216 0.55152 2.53741 103 83 74
-0.175009 0.552159 2.53858 109 84 77
-0.141221 0.557596 2.56154 110 92 82
-0.105709 0.558241 2.56272 103 83 76
-0.0701969 0.558885 2.5639 102 82 71
-0.0351917 0.564344 2.5869 90 74 51
0.000412899 0.570034 2.61092 100 83 75
0.0366539 0.575735 2.63496 88 72 56
0.071851 0.561464 2.56861 63 56 48
0.101452 0.521876 2.38791 37 29 26
0.131019 0.506188 2.31542 50 43 37
0.156859 0.484292 2.21501 42 33 26
0.181648 0.46764 2.1384 47 35 37
0.201037 0.442777 2.02487 106 95 73
0.218461 0.420509 1.92319 160 126 117
0.240761 0.413021 1.88818 133 46 39
0.262323 0.405957 1.85514 176 160 127
0.286233 0.403979 1.84502 174 159 130
0.309838 0.401996 1.83488 169 141 117
0.329385 0.395115 1.80276 174 150 124
0.352077 0.393115 1.7926 183 163 139
0.37268 0.389104 1.77342 172 151 122
0.394639 0.387091 1.76323 168 140 126
0.421265 0.389986 1.77504 175 155 130
0.447956 0.392663 1.78585 167 145 122
0.46985 0.390868 1.77665 164 142 121
0.494143 0.391309 1.77745 145 83 84
0.518435 0.39175 1.77826 164 129 101
0.54568 0.394437 1.78909 161 139 118
0.567021 0.392632 1.77987 172 148 122
0.587762 0.390597 1.76964 168 149 119
0.611903 0.391035 1.77044 159 143 110
0.632538 0.389217 1.7612 152 137 108
0.652897 0.387394 1.75195 158 137 106
0.684324 0.39235 1.77284 143 126 106
0.700625 0.38826 1.75353 151 135 99
0.72043 0.386427 1.74426 159 146 111
0.736182 0.382547 1.72592 149 132 114
0.759645 0.382973 1.7267 121 112 83
0.791606 0.387719 1.74662 120 101 94
0.83885 0.399759 1.79882 99 84 61
0.863281 0.400203 1.79963 105 84 63
0.882824 0.398365 1.79035 122 110 84
0.907117 0.398806 1.79116 120 97 79
-1.24875 0.489324 2.16718 118 100 78
-1.22721 0.493445 2.18378 127 102 106
-1.18766 0.490433 2.16921 129 113 88
-1.17477 0.49836 2.20238 126 107 92
-1.14377 0.498922 2.20341 118 101 85
-1.1214 0.503291 2.22102 123 107 91
-1.09855 0.507668 2.23865 122 104 90
-1.06708 0.50824 2.2397 103 87 71
-0.87252 0.430188 1.89886 71 57 54
-0.840011 0.427748 1.88703 73 63 51
-0.824518 0.433856 1.91236 75 63 49
-0.80324 0.437273 1.92596 71 63 50
-0.770925 0.434829 1.91413 80 63 55
-0.734209 0.429668 1.89055 74 65 56
-0.717332 0.435802 1.91591 76 66 57
-0.690536 0.436289 1.9168 71 60 56
-0.659476 0.434055 1.90592 70 58 60
-0.632845 0.434539 1.90681 64 60 48
-0.610146 0.437748 1.91947 76 61 56
-0.583349 0.438235 1.92036 75 60 63
-0.556553 0.438721 1.92125 56 53 38
-0.529756 0.439207 1.92214 60 47 39
-0.506499 0.44266 1.93581 59 49 47
-0.482625 0.44589 1.94851 54 46 44
-0.458662 0.449356 1.9622 49 41 30
-0.43134 0.449852 1.96311 50 34 35
-0.404018 0.450348 1.96402 39 30 23
-0.376695 0.450844 1.96492 34 27 19
-0.349373 0.45134 1.96583 47 37 28
-0.324332 0.454825 1.97956 43 30 22
-0.294729 0.452332 1.96764 70 57 49
-0.345433 0.574486 2.48988 88 69 62
-0.313619 0.579959 2.51177 92 73 58
-0.281224 0.585442 2.53369 94 75 58
-0.246017 0.586081 2.53486 88 70 58
-0.210809 0.58672 2.53602 104 86 74
-0.175602 0.587359 2.53719 105 83 70
-0.140394 0.587998 2.53836 103 84 67
-0.106307 0.593745 2.56132 108 90 80
-0.070795 0.59439 2.5625 98 80 68
-0.035795 0.600153 2.58549 98 79 72
-0.000412739 0.611518 2.63231 104 79 74
0.03604 0.61218 2.63352 92 79 71
0.0720733 0.607473 2.61189 65 52 46
0.104039 0.577751 2.48396 31 22 23
0.131307 0.542349 2.33205 35 20 23
0.155389 0.511085 2.1979 48 35 29
0.181152 0.497101 2.13724 50 37 31
0.204238 0.480504 2.06557 48 30 28
0.218016 0.446955 1.92214 79 25 15
0.239058 0.436381 1.8762 161 119 103
0.259058 0.426255 1.83222 174 157 131
0.279525 0.418934 1.80015 177 152 132
0.302525 0.416788 1.79 173 151 127
0.323686 0.41251 1.77085 170 154 129
0.347978 0.412951 1.77166 169 149 116
0.368111 0.408421 1.75149 178 161 135
0.389994 0.406488 1.74229 184 160 132
0.409569 0.402414 1.72409 176 139 113
0.430774 0.400468 1.71487 158 144 118
0.456771 0.403271 1.72566 163 145 123
0.482777 0.405841 1.73545 170 154 118
0.503972 0.404128 1.72722 107 92 71
0.527573 0.404556 1.72801 163 144 112
0.551174 0.404985 1.72879 168 142 115
0.574775 0.405413 1.72957 159 142 114
0.595012 0.40345 1.72032 162 139 121
0.618474 0.403875 1.7211 159 139 106
0.635019 0.399747 1.7028 149 126 95
0.66162 0.402328 1.71261 146 129 101
0.684944 0.402751 1.71338 145 131 105
0.708269 0.403175 1.71416 146 122 98
0.731593 0.403598 1.71493 154 139 100
0.747118 0.399684 1.69759 159 131 119
0.765723 0.397691 1.68828 130 95 91
0.784511 0.395934 1.67997 108 92 69
0.807324 0.396348 1.68073 88 74 61
0.87704 0.419991 1.7783 109 92 72
0.886108 0.413163 1.74883 121 100 81
-1.2585 0.523647 2.18154 133 109 97
-1.22773 0.524206 2.18256 125 105 98
-1.19696 0.524764 2.18358 124 98 107
-1.1753 0.529355 2.20116 129 108 89
-1.14429 0.529918 2.20219 126 108 88
-1.12192 0.534522 2.21979 120 109 89
-1.09908 0.539135 2.23741 121 103 93
-0.870797 0.442037 1.83837 85 70 67
-0.850125 0.445128 1.84997 66 63 48
-0.8296 0.448464 1.86255 76 71 67
-0.798219 0.44607 1.85169 76 67 62
-0.777363 0.449412 1.86428 61 51 59
-0.756175 0.45276 1.87689 52 42 40
-0.72989 0.453237 1.87776 51 42 37
-0.713185 0.459714 1.90311 52 38 37
-0.686555 0.460197 1.90399 44 40 29
-0.655302 0.457554 1.89214 43 34 29
-0.628852 0.458034 1.89301 42 37 33
-0.606663 0.461647 1.90664 45 37 24
-0.580032 0.462131 1.90753 47 43 32
-0.553402 0.462614 1.90841 42 31 35
-0.526771 0.463098 1.90929 36 37 23
-0.506954 0.469631 1.93475 41 30 24
-0.483082 0.473027 1.94744 45 41 30
-0.459122 0.476672 1.96113 36 26 35
-0.4318 0.477168 1.96203 34 35 27
-0.404478 0.477664 1.96294 37 34 19
-0.377156 0.47816 1.96385 37 26 22
-0.352297 0.481822 1.97756 30 19 27
-0.324795 0.482321 1.97848 39 32 22
-0.297293 0.48282 1.97939 66 51 44
-0.346016 0.609106 2.48852 81 63 49
-0.317025 0.620003 2.53113 86 68 56
-0.281817 0.620642 2.5323 94 71 57
-0.24661 0.621282 2.53347 96 78 64
-0.213441 0.627316 2.55639 91 72 65
-0.176195 0.62256 2.5358 100 80 69
-0.142417 0.628605 2.55874 103 84 70
-0.108031 0.634662 2.5817 98 79 72
-0.0730733 0.640976 2.60567 103 83 72
-0.0363982 0.635963 2.58408 92 71 70
-0.00102669 0.647964 2.63087 93 74 59
0.035426 0.648625 2.63208 93 73 62
0.0718787 0.649287 2.63329 65 54 52
0.103461 0.61208 2.4826 32 23 24
0.132454 0.583715 2.36753 28 28 16
0.154878 0.541403 2.19671 48 36 38
0.181756 0.530285 2.15099 46 33 27
0.203759 0.508954 2.06444 49 39 40
0.22666 0.495789 2.01066 69 38 43
0.237245 0.459188 1.86324 150 116 107
0.255803 0.445944 1.80931 161 142 125
0.276117 0.438411 1.77825 168 150 130
0.295701 0.431111 1.74816 185 163 140
0.3163 0.426547 1.729 179 162 132
0.336529 0.422222 1.71083 96 59 43
0.358013 0.420143 1.70163 146 85 90
0.379432 0.418309 1.69341 153 72 89
0.400602 0.416471 1.68519 149 77 78
0.41913 0.412116 1.66696 139 95 86
0.439664 0.410266 1.65872 167 145 122
0.462351 0.410678 1.65947 166 146 122
0.482512 0.408822 1.65121 138 118 107
0.505075 0.409231 1.65196 106 94 72
0.535968 0.416459 1.67977 149 132 104
0.558905 0.416876 1.68053 159 139 114
0.578816 0.415015 1.67226 165 143 119
0.601628 0.415429 1.67302 157 146 116
0.621166 0.413561 1.66474 157 139 115
0.647253 0.416257 1.67453 164 145 113
0.666542 0.414385 1.66625 153 125 113
0.68923 0.414797 1.667 158 131 112
0.71569 0.417499 1.6768 161 136 114
0.738502 0.417914 1.67756 149 125 115
0.749697 0.411697 1.65215 167 147 114
0.768003 0.409806 1.64383 151 138 119
0.78606 0.407912 1.6355 148 126 102
0.808264 0.408315 1.63624 139 107 82
0.830468 0.408718 1.63698 118 102 87
-1.25901 0.554408 2.18033 128 112 87
-1.22825 0.554966 2.18135 130 107 93
-1.20682 0.559788 2.19891 127 103 93
-1.17582 0.560351 2.19994 124 104 97
-1.14482 0.560914 2.20097 122 105 95
-1.13108 0.570029 2.23513 124 101 93
-1.09121 0.56632 2.2196 115 96 82
-0.860186 0.462035 1.81493 34 25 18
-0.850562 0.471075 1.84895 45 34 42
-0.819631 0.468769 1.83907 42 35 27
-0.798657 0.472018 1.85067 43 36 26
-0.777803 0.475526 1.86326 41 30 28
-0.756617 0.479039 1.87585 33 29 20
-0.730333 0.479516 1.87672 38 31 38
-0.708649 0.483039 1.88934 38 30 28
-0.687003 0.486822 1.90294 39 29 27
-0.660372 0.487306 1.90383 33 25 22
-0.633742 0.487789 1.90471 41 29 29
-0.611049 0.49133 1.91736 35 30 26
-0.584252 0.491817 1.91825 34 22 24
-0.557456 0.492303 1.91914 33 22 16
-0.530659 0.49279 1.92003 42 31 29
-0.503862 0.493276 1.92091 40 31 32
-0.486905 0.503493 1.95914 37 32 28
-0.459582 0.503989 1.96005 35 24 20
-0.435266 0.50782 1.97374 41 29 29
-0.407764 0.50832 1.97465 43 33 32
-0.380262 0.508819 1.97557 40 30 21
-0.35276 0.509318 1.97648 24 17 9
-0.325258 0.509817 1.97739 35 26 29
-0.297756 0.510317 1.9783 62 53 48
-0.346599 0.643725 2.48715 77 63 54
-0.317618 0.655204 2.52974 86 65 62
-0.28241 0.655843 2.53091 85 67 67
-0.249551 0.662176 2.55381 93 74 60
-0.214039 0.662821 2.55499 85 72 66
-0.180267 0.669171 2.57791 92 74 64
-0.14445 0.669821 2.5791 102 74 71
-0.108634 0.670471 2.58029 97 73 69
-0.0736819 0.677103 2.60425 99 81 67
-0.0375474 0.677759 2.60545 100 76 72
-0.00164064 0.684409 2.62944 95 79 66
0.0348121 0.685071 2.63065 102 80 66
0.0712647 0.685732 2.63186 49 43 31
0.103546 0.651897 2.50209 31 27 28
0.132766 0.621396 2.38511 29 21 19
0.157272 0.584551 2.24418 39 30 33
0.180159 0.556022 2.13491 46 36 37
0.20328 0.537405 2.06332 45 35 33
0.226194 0.523479 2.00957 43 34 35
0.243575 0.500325 1.92094 108 88 77
0.255384 0.470812 1.80833 151 135 109
0.272717 0.457306 1.75637 154 141 122
0.292175 0.449836 1.72728 181 155 132
0.312671 0.445254 1.70913 171 139 126
0.330988 0.438285 1.68198 121 28 46
0.352087 0.43606 1.67277 185 123 136
0.375024 0.436477 1.67353 188 134 132
0.393906 0.432126 1.65632 187 139 129
0.414442 0.430152 1.64808 181 116 124
0.437005 0.430561 1.64883 193 154 137
0.455033 0.426455 1.63258 178 163 134
0.474836 0.424468 1.62431 174 152 129
0.497039 0.424871 1.62505 155 138 110
0.514002 0.420746 1.60876 91 78 62
0.535971 0.421145 1.60949 169 153 119
0.555251 0.419409 1.6022 173 144 128
0.574311 0.417669 1.5949 159 140 107
0.608057 0.426886 1.62873 163 143 106
0.630261 0.42729 1.62947 158 134 110
0.652465 0.427693 1.63021 165 88 98
0.674668 0.428096 1.63094 162 79 107
0.696872 0.428499 1.63168 164 99 107
0.715613 0.426753 1.62437 154 116 95
0.737706 0.427154 1.62511 137 119 99
0.759799 0.427555 1.62584 136 123 91
0.773829 0.423377 1.60945 116 94 70
0.791782 0.421616 1.60212 93 79 70
0.809012 0.419582 1.59377 94 71 65
-1.26935 0.589658 2.19563 117 97 86
-1.23834 0.590221 2.19666 122 98 88
-1.20734 0.590784 2.19769 121 100 95
-1.17634 0.591347 2.19872 117 96 93
-1.14534 0.59191 2.19975 120 103 93
-1.13161 0.601495 2.23389 126 109 81
-1.10014 0.602067 2.23493 113 95 83
-0.871666 0.493627 1.83634 47 31 41
-0.850999 0.497023 1.84792 39 24 27
-0.83048 0.500691 1.86049 28 15 24
-0.799094 0.497965 1.84965 34 24 22
-0.783345 0.504842 1.87394 35 34 29
