ply
format ascii 1.0
element vertex 1231
property float x
property float y
property float z
property uchar red
property uchar green
property uchar blue
end_header
-1.02754 -0.404913 1.98926 223 206 198
-1.01408 -0.409787 2.01706 214 198 199
-0.986208 -0.40919 2.01815 203 183 184
-0.965226 -0.411417 2.03311 216 202 193
-0.937165 -0.410815 2.03421 219 198 195
-0.915603 -0.41303 2.0492 190 175 168
-0.893653 -0.415236 2.0642 212 195 188
-0.865205 -0.414626 2.06532 211 193 193
-0.836756 -0.414017 2.06644 197 178 172
-0.814032 -0.416206 2.08147 210 193 185
-0.78539 -0.415592 2.08259 207 192 187
-0.762085 -0.41777 2.09765 184 165 159
-0.738761 -0.420137 2.11371 210 192 182
-0.709717 -0.419515 2.11485 211 194 186
-0.680674 -0.418893 2.11599 175 157 147
-0.65652 -0.421243 2.13209 209 191 181
-0.63195 -0.423584 2.14821 204 191 185
-0.602492 -0.422953 2.14936 204 185 181
-0.5773 -0.425281 2.1655 208 191 183
-0.547635 -0.424645 2.16667 160 141 137
-0.521821 -0.426959 2.18283 207 183 179
-0.491948 -0.426319 2.184 196 178 168
-0.46574 -0.428817 2.20119 196 172 168
-0.43909 -0.431304 2.2184 199 179 170
-0.408775 -0.430655 2.21959 186 167 160
-0.378459 -0.430005 2.22078 194 177 167
-0.348144 -0.429355 2.22197 175 152 158
-0.320387 -0.431819 2.23922 190 174 161
-0.289851 -0.431165 2.24042 193 177 162
-0.26143 -0.433615 2.25769 188 170 160
-0.232686 -0.436249 2.27599 171 153 141
-0.201693 -0.435585 2.27721 183 166 159
-0.1707 -0.434921 2.27842 190 172 160
-0.139706 -0.434256 2.27964 188 165 159
-0.11086 -0.440139 2.31511 161 137 125
-0.0793964 -0.439464 2.31635 180 162 148
-0.0479329 -0.43879 2.31758 163 141 130
-0.0168375 -0.441374 2.33597 180 161 147
0.0147203 -0.444139 2.35539 164 147 131
0.0472266 -0.461223 2.4506 129 105 93
0.0797065 -0.453261 2.41349 137 114 83
0.113054 -0.456179 2.43399 146 122 94
0.146025 -0.455473 2.43529 150 124 101
0.178996 -0.454766 2.43658 146 120 97
0.211967 -0.454059 2.43788 141 114 93
0.246629 -0.456949 2.45843 152 126 109
0.279863 -0.456237 2.45973 148 121 100
0.315313 -0.45911 2.48031 144 114 103
0.348809 -0.458392 2.48163 141 122 90
0.382306 -0.457674 2.48294 141 118 102
0.418965 -0.460712 2.50458 144 115 81
0.452738 -0.459988 2.50591 139 117 76
0.482795 -0.45552 2.48689 138 112 95
0.520284 -0.458541 2.50856 139 114 83
0.554058 -0.457817 2.50989 140 118 97
0.583285 -0.453367 2.49083 141 113 101
0.626426 -0.46009 2.53293 133 121 81
0.665575 -0.463074 2.55466 135 108 87
0.699901 -0.462339 2.55601 132 103 85
0.734228 -0.461603 2.55736 136 110 87
0.774779 -0.464749 2.58016 137 108 94
0.80288 -0.460132 2.56006 133 101 86
0.837207 -0.459396 2.5614 134 106 82
0.864774 -0.454982 2.54228 135 106 88
0.913246 -0.461782 2.5856 132 105 88
0.95554 -0.46489 2.60847 127 102 82
0.98248 -0.460298 2.58832 125 108 82
0.993108 -0.448408 2.52712 125 107 83
1.00327 -0.437101 2.46894 127 104 90
1.02025 -0.429472 2.43123 131 108 94
1.03704 -0.422229 2.39553 131 108 94
1.03804 -0.409016 2.32588 126 102 90
1.06117 -0.40527 2.30962 132 104 90
1.07669 -0.39882 2.2779 140 107 90
1.09132 -0.392388 2.24616 137 108 102
1.10608 -0.386336 2.21644 135 107 83
-1.11057 -0.379191 1.98481 215 196 190
-1.08307 -0.378602 1.98589 214 195 191
-1.05558 -0.378013 1.98697 204 189 182
-1.03556 -0.380067 2.00189 209 199 187
-1.00787 -0.379473 2.00297 215 200 195
-0.986757 -0.381327 2.01692 211 199 185
-0.965779 -0.38336 2.03188 215 200 195
-0.944414 -0.385385 2.04685 212 196 196
-0.91616 -0.384779 2.04796 200 183 175
-0.894214 -0.386792 2.06295 213 196 188
-0.871881 -0.388796 2.07796 211 193 193
-0.843239 -0.388183 2.07908 212 195 187
-0.814597 -0.387569 2.08021 211 197 186
-0.785955 -0.386955 2.08133 212 197 192
-0.768376 -0.391721 2.1113 191 177 164
-0.744848 -0.393877 2.12736 208 192 177
-0.71029 -0.390476 2.11358 212 195 185
-0.691447 -0.395393 2.1446 167 154 138
-0.661989 -0.394762 2.14575 203 188 181
-0.632531 -0.394131 2.14691 208 189 183
-0.607551 -0.396256 2.16303 202 182 171
-0.577885 -0.39562 2.1642 205 188 181
-0.548219 -0.394984 2.16536 162 142 131
-0.522409 -0.397091 2.18152 201 182 175
-0.492536 -0.396451 2.18269 195 182 174
-0.470003 -0.401643 2.21587 193 174 170
-0.436239 -0.398082 2.20105 201 180 177
-0.4126 -0.403251 2.23428 179 155 151
-0.382063 -0.402596 2.23548 196 179 171
-0.351526 -0.401942 2.23668 175 155 146
-0.320989 -0.401287 2.23787 186 170 157
-0.290452 -0.400633 2.23907 189 175 162
-0.26429 -0.405925 2.27341 191 172 165
-0.233297 -0.405261 2.27463 170 150 139
-0.204087 -0.40765 2.29293 182 160 146
-0.172858 -0.406981 2.29416 188 169 163
-0.14163 -0.406311 2.29539 183 163 154
-0.112558 -0.411718 2.33085 163 143 134
-0.0808592 -0.411039 2.33209 180 164 149
-0.0491606 -0.41036 2.33334 161 140 121
-0.017462 -0.40968 2.33458 179 160 143
0.0139452 -0.415392 2.37215 172 152 128
0.0465719 -0.427994 2.44914 117 96 79
0.0794339 -0.42392 2.43125 141 110 89
0.112405 -0.423214 2.43254 149 119 95
0.145376 -0.422507 2.43384 149 121 100
0.178347 -0.4218 2.43513 146 118 97
0.212741 -0.424433 2.45566 150 123 94
0.245974 -0.423721 2.45697 144 122 98
0.279208 -0.423009 2.45827 142 118 94
0.31698 -0.429116 2.49912 148 114 104
0.348149 -0.424901 2.48016 144 112 97
0.387407 -0.431153 2.52207 143 119 95
0.4183 -0.426944 2.5031 141 116 94
0.452073 -0.426221 2.50442 143 116 97
0.485846 -0.425497 2.50575 139 107 84
0.523606 -0.428235 2.52742 143 115 101
0.557656 -0.427505 2.52876 135 109 86
0.591706 -0.426775 2.53009 135 110 88
0.630572 -0.429489 2.55181 140 107 92
0.670247 -0.432363 2.57456 139 111 89
0.704864 -0.431622 2.57592 138 115 81
0.73948 -0.43088 2.57728 139 108 88
0.767878 -0.426547 2.5572 134 105 91
0.808714 -0.429396 2.58 129 104 84
0.83653 -0.425075 2.55989 131 105 90
0.877947 -0.427912 2.58272 130 104 87
0.912564 -0.42717 2.58407 135 109 84
0.954853 -0.429988 2.60693 124 96 74
0.981798 -0.425687 2.58679 127 104 90
0.992443 -0.41464 2.52564 125 104 73
1.01035 -0.407339 2.48697 129 100 94
1.01961 -0.397032 2.4298 126 104 91
1.02859 -0.387262 2.37565 137 107 96
1.04505 -0.38088 2.34197 129 113 79
1.06842 -0.377364 2.32573 128 111 81
1.06848 -0.365835 2.26012 132 109 91
1.09073 -0.36252 2.24484 137 107 97
1.1055 -0.356883 2.21514 128 100 86
-1.11111 -0.351702 1.9836 216 201 194
-1.08361 -0.351112 1.98468 208 192 192
-1.06379 -0.352977 1.99958 206 185 182
-1.0361 -0.352383 2.00067 217 197 196
-1.02245 -0.356506 2.02844 214 203 197
-0.994393 -0.355905 2.02954 214 195 188
-0.98012 -0.360177 2.05835 215 201 192
-0.951671 -0.359567 2.05947 207 194 186
-0.923223 -0.358958 2.06058 207 192 185
-0.901087 -0.360773 2.07558 208 191 184
-0.872445 -0.360159 2.0767 212 195 188
-0.843803 -0.359545 2.07782 213 193 182
-0.820893 -0.361343 2.09285 203 186 178
-0.792057 -0.360725 2.09398 217 193 189
-0.768948 -0.362683 2.11002 199 184 179
-0.739905 -0.36206 2.11116 204 187 179
-0.716174 -0.364005 2.12722 213 193 192
-0.686923 -0.363378 2.12837 174 158 143
-0.662569 -0.365309 2.14446 201 183 179
-0.6378 -0.367231 2.16056 204 190 187
-0.608135 -0.366595 2.16173 195 174 169
-0.578469 -0.365959 2.16289 203 188 183
-0.552871 -0.367863 2.17903 166 149 139
-0.527115 -0.369928 2.19618 196 179 171
-0.49702 -0.369283 2.19736 201 182 176
-0.470601 -0.371333 2.21454 192 174 160
-0.443738 -0.373373 2.23174 198 179 172
-0.413201 -0.372719 2.23293 172 154 144
-0.382664 -0.372064 2.23413 192 172 165
-0.352127 -0.37141 2.23533 179 159 152
-0.324159 -0.373427 2.25257 185 167 155
-0.2934 -0.372768 2.25378 190 170 159
-0.267159 -0.377765 2.28911 188 169 163
-0.233907 -0.374273 2.27326 173 156 146
-0.204702 -0.376426 2.29156 180 160 153
-0.175027 -0.37857 2.30988 187 169 157
-0.142245 -0.375088 2.29401 182 164 154
-0.1121 -0.377222 2.31235 162 143 129
-0.0814837 -0.379345 2.3307 181 154 145
-0.0497851 -0.378666 2.33194 157 139 127
-0.0180865 -0.377987 2.33319 182 162 151
0.0131603 -0.386147 2.38889 169 148 127
0.0459171 -0.394766 2.44768 116 95 92
0.0787843 -0.390955 2.4298 138 111 90
0.111755 -0.390248 2.43109 145 118 99
0.145618 -0.392629 2.45159 143 115 91
0.178852 -0.391917 2.45289 149 122 95
0.212086 -0.391205 2.4542 151 124 97
0.24532 -0.390492 2.4555 148 116 101
0.280496 -0.392845 2.47605 150 117 100
0.313993 -0.392127 2.47737 143 116 89
0.350088 -0.394624 2.49896 141 114 84
0.383861 -0.393901 2.50029 147 119 95
0.417634 -0.393177 2.50161 141 110 92
0.451408 -0.392453 2.50294 144 118 95
0.485181 -0.391729 2.50426 141 117 89
0.526917 -0.397375 2.54625 139 112 95
0.556985 -0.393461 2.52726 140 111 97
0.591035 -0.392731 2.5286 137 110 99
0.634948 -0.398494 2.57168 139 113 90
0.669565 -0.397752 2.57304 131 111 84
0.704182 -0.39701 2.5744 137 110 83
0.738798 -0.396268 2.57576 131 107 83
0.773415 -0.395527 2.57712 134 108 85
0.808032 -0.394785 2.57848 129 102 91
0.842649 -0.394043 2.57983 127 108 78
0.877265 -0.393301 2.58119 131 104 77
0.911882 -0.392559 2.58255 127 97 87
0.954165 -0.395087 2.6054 130 97 80
0.981116 -0.391075 2.58527 140 104 92
0.991777 -0.380872 2.52415 124 94 92
1.0097 -0.374111 2.48551 129 107 84
1.02696 -0.367527 2.44785 131 109 95
1.02797 -0.355569 2.37425 131 105 88
1.04443 -0.349656 2.3406 130 107 89
1.05996 -0.343764 2.30691 136 106 98
1.07549 -0.338198 2.27524 139 105 93
1.09015 -0.332652 2.24353 133 110 78
1.10492 -0.32743 2.21385 132 110 86
-1.11165 -0.324212 1.98239 199 185 174
-1.08416 -0.323622 1.98347 211 192 188
-1.06433 -0.325293 1.99836 201 186 179
-1.04359 -0.326795 2.01228 215 198 191
-1.02301 -0.328449 2.02721 218 199 193
-1.00913 -0.332343 2.05598 213 195 191
-0.98068 -0.331733 2.0571 209 195 186
-0.952232 -0.331124 2.05821 213 196 189
-0.923783 -0.330514 2.05933 208 193 190
-0.901652 -0.332135 2.07432 213 193 194
-0.879133 -0.333748 2.08931 203 189 180
-0.844367 -0.330907 2.07656 209 191 181
-0.821461 -0.332512 2.09158 207 187 188
-0.798564 -0.334267 2.1076 207 194 185
-0.780982 -0.338381 2.13854 199 186 177
-0.751524 -0.337749 2.13969 200 183 173
-0.722066 -0.337118 2.14085 203 185 185
-0.692608 -0.336487 2.14201 186 168 158
-0.66315 -0.335855 2.14316 199 179 178
-0.633691 -0.335224 2.14432 200 183 176
-0.608719 -0.336934 2.16042 192 174 164
-0.579054 -0.336298 2.16159 200 182 178
-0.553459 -0.337995 2.17772 171 156 133
-0.527708 -0.339838 2.19486 191 179 165
-0.497613 -0.339193 2.19604 199 180 173
-0.474876 -0.343496 2.22919 193 172 171
-0.44434 -0.342841 2.23039 197 178 172
-0.413803 -0.342187 2.23159 169 149 142
-0.383266 -0.341532 2.23279 192 178 169
-0.352729 -0.340878 2.23399 179 163 150
-0.324764 -0.342674 2.25122 186 168 156
-0.294006 -0.342015 2.25243 189 171 161
-0.267774 -0.346542 2.28773 179 162 154
-0.236546 -0.345872 2.28896 176 154 140
-0.20711 -0.347786 2.30726 185 162 154
-0.175646 -0.347112 2.30849 184 166 166
-0.144183 -0.346438 2.30973 178 161 151
-0.113807 -0.348331 2.32806 162 139 131
-0.0821081 -0.347652 2.3293 176 158 148
-0.0504096 -0.346973 2.33055 158 134 124
-0.0191154 -0.348996 2.34992 187 163 153
0.0125211 -0.353707 2.38746 163 140 124
0.0452624 -0.361537 2.44621 121 97 85
0.0784961 -0.360825 2.44752 143 114 96
0.111106 -0.357282 2.42964 147 118 100
0.144964 -0.359401 2.45013 145 119 96
0.178197 -0.358688 2.45143 145 124 95
0.211431 -0.357976 2.45274 154 122 101
0.244665 -0.357264 2.45404 143 118 87
0.277899 -0.356552 2.45535 144 122 85
0.31565 -0.36158 2.49615 146 115 94
0.352016 -0.363795 2.51774 142 114 92
0.386066 -0.363065 2.51908 148 117 99
0.420115 -0.362335 2.52041 142 114 92
0.454165 -0.361606 2.52175 143 115 101
0.488215 -0.360876 2.52309 142 111 93
0.522265 -0.360146 2.52442 142 116 93
0.560567 -0.362319 2.54609 138 112 85
0.594894 -0.361583 2.54744 134 108 85
0.634266 -0.363883 2.57016 138 113 83
0.668883 -0.363141 2.57152 134 110 82
0.709127 -0.365422 2.59427 141 110 90
0.738116 -0.361657 2.57423 137 111 98
0.772733 -0.360915 2.57559 131 101 90
0.80735 -0.360174 2.57695 135 103 80
0.848756 -0.36243 2.59975 134 107 90
0.876583 -0.35869 2.57967 127 104 86
0.91857 -0.360933 2.60249 132 105 98
0.961137 -0.363165 2.62533 125 100 70
0.980434 -0.356464 2.58375 120 102 88
0.998961 -0.34993 2.54314 135 107 95
1.00132 -0.338204 2.46459 128 105 87
1.02631 -0.334824 2.44642 133 104 96
1.02734 -0.323875 2.37286 123 101 87
1.05143 -0.320815 2.35666 127 105 91
1.05935 -0.313011 2.30556 132 113 81
1.06729 -0.305656 2.25747 140 112 98
1.08956 -0.302784 2.24222 124 102 89
1.10434 -0.297976 2.21255 133 104 90
-1.12025 -0.298797 1.99497 209 194 187
-1.09257 -0.298203 1.99606 212 191 188
-1.06488 -0.29761 1.99714 203 186 178
-1.05162 -0.300994 2.02487 203 191 169
-1.02356 -0.300392 2.02597 213 192 197
-1.00259 -0.301845 2.0409 209 192 184
-0.981241 -0.303289 2.05585 206 189 182
-0.952792 -0.30268 2.05696 213 193 194
-0.924344 -0.30207 2.05808 205 192 186
-0.908537 -0.305535 2.08691 201 188 172
-0.873574 -0.302884 2.07418 210 192 188
-0.857222 -0.306473 2.10404 203 187 187
-0.822029 -0.303681 2.09031 202 181 178
-0.805078 -0.307393 2.1212 206 187 183
-0.781562 -0.308927 2.13724 206 186 185
-0.752104 -0.308296 2.1384 201 181 180
-0.722646 -0.307664 2.13955 206 192 165
-0.693188 -0.307033 2.14071 189 172 164
-0.668635 -0.308545 2.15679 207 183 183
-0.638969 -0.307909 2.15795 202 182 181
-0.609304 -0.307273 2.15912 181 163 159
-0.583921 -0.308767 2.17523 201 182 175
-0.558395 -0.310394 2.19235 185 166 152
-0.532426 -0.312011 2.20949 195 173 175
-0.502111 -0.311361 2.21068 198 177 172
-0.475478 -0.312964 2.22785 183 163 156
-0.448403 -0.314557 2.24504 194 178 165
-0.417645 -0.313898 2.24624 165 145 138
-0.386887 -0.313239 2.24745 187 169 165
-0.356129 -0.31258 2.24866 187 166 163
-0.328108 -0.314289 2.26689 186 168 156
-0.297115 -0.313624 2.2681 184 167 159
-0.268389 -0.315318 2.28636 187 168 162
-0.239193 -0.317002 2.30464 176 157 153
-0.20773 -0.316328 2.30587 176 158 148
-0.177828 -0.317996 2.32418 182 168 155
-0.14613 -0.317317 2.32542 181 161 150
-0.115587 -0.319108 2.34476 159 142 126
-0.0836399 -0.318423 2.34601 181 162 147
-0.0516923 -0.317739 2.34726 158 136 115
-0.0197448 -0.317054 2.34852 181 162 148
0.0117126 -0.323852 2.40517 158 133 126
0.0447011 -0.330888 2.4639 114 91 85
0.0774852 -0.325023 2.4269 145 117 96
0.111075 -0.326885 2.44736 147 116 96
0.144309 -0.326172 2.44867 147 117 93
0.178687 -0.328017 2.46916 142 114 93
0.212184 -0.327299 2.47048 143 115 94
0.24568 -0.326581 2.47179 142 113 95
0.281211 -0.328537 2.49334 140 115 85
0.314984 -0.327813 2.49466 144 118 95
0.351345 -0.329751 2.51624 143 112 92
0.385395 -0.329021 2.51758 142 114 93
0.419445 -0.328291 2.51892 141 115 88
0.453494 -0.327561 2.52025 140 111 97
0.491238 -0.32947 2.54189 137 113 85
0.525565 -0.328734 2.54323 138 112 89
0.559891 -0.327998 2.54458 136 109 88
0.594217 -0.327263 2.54593 136 106 95
0.638625 -0.332017 2.58999 138 114 88
0.668201 -0.32853 2.56999 130 106 82
0.708439 -0.33052 2.59273 132 104 90
0.743346 -0.329772 2.5941 131 99 88
0.778254 -0.329024 2.59547 134 105 87
0.813161 -0.328276 2.59684 129 105 81
0.848068 -0.327528 2.59821 129 108 89
0.882975 -0.32678 2.59959 130 109 80
0.917882 -0.326032 2.60096 131 107 69
0.960444 -0.327973 2.62379 126 105 86
0.979752 -0.321853 2.58222 124 109 80
0.99829 -0.315886 2.54164 132 104 93
1.00839 -0.307654 2.48259 130 108 87
1.02567 -0.302122 2.44498 124 102 88
1.03452 -0.29446 2.38991 126 107 92
1.05081 -0.289356 2.35528 127 100 83
1.05875 -0.282258 2.3042 134 109 87
1.0667 -0.275566 2.25615 133 106 97
1.08897 -0.272915 2.2409 145 112 103
1.10376 -0.268523 2.21126 129 106 100
-1.1208 -0.271113 1.99375 206 186 175
-1.09311 -0.27052 1.99484 205 190 183
-1.06542 -0.269926 1.99593 205 186 182
-1.05217 -0.272937 2.02364 196 181 176
-1.02411 -0.272336 2.02474 204 192 170
-1.01025 -0.275455 2.05348 204 190 189
-0.981801 -0.274845 2.0546 198 181 173
-0.960064 -0.276088 2.06955 205 189 189
-0.931422 -0.275474 2.07067 199 186 180
-0.909105 -0.276704 2.08565 202 182 173
-0.880269 -0.276086 2.08678 207 192 189
-0.851433 -0.275468 2.08791 205 187 185
-0.828751 -0.276812 2.10391 200 186 175
-0.799708 -0.27619 2.10505 197 182 175
-0.782143 -0.279474 2.13595 204 185 178
-0.752685 -0.278842 2.1371 195 182 174
-0.723226 -0.278211 2.13826 205 187 177
-0.693768 -0.27758 2.13942 202 183 177
-0.669219 -0.278884 2.15548 197 179 167
-0.639554 -0.278248 2.15665 198 183 176
-0.614383 -0.279539 2.17274 180 163 155
-0.584509 -0.278899 2.17391 192 179 171
-0.563339 -0.28235 2.20697 187 167 156
-0.537153 -0.283741 2.22411 191 175 160
-0.506617 -0.283086 2.22531 192 175 165
-0.47608 -0.282432 2.22651 192 169 161
-0.449009 -0.283804 2.24368 190 170 169
-0.418251 -0.283145 2.24489 163 139 135
-0.387493 -0.282486 2.2461 188 172 157
-0.359712 -0.283965 2.26431 189 169 160
-0.331461 -0.285433 2.28254 184 164 153
-0.297726 -0.282636 2.26674 185 166 160
-0.273549 -0.288341 2.31905 186 163 157
-0.24185 -0.287662 2.32029 174 155 148
-0.210152 -0.286982 2.32154 176 154 143
-0.178453 -0.286303 2.32278 183 165 151
-0.148164 -0.28785 2.3421 180 162 150
-0.116217 -0.287166 2.34335 160 140 129
-0.0842693 -0.286481 2.3446 182 159 151
-0.0523217 -0.285796 2.34586 155 137 123
-0.0203742 -0.285112 2.34711 180 162 148
0.0110682 -0.291149 2.40373 153 128 123
0.0441341 -0.299835 2.48257 114 92 71
0.0771867 -0.294368 2.4446 146 116 90
0.11042 -0.293656 2.4459 146 124 101
0.143654 -0.292944 2.4472 144 119 97
0.178027 -0.294526 2.46769 142 116 101
0.211524 -0.293808 2.469 147 121 98
0.246773 -0.295493 2.49053 140 117 85
0.282575 -0.297166 2.51207 146 114 91
0.316625 -0.296436 2.51341 140 119 92
0.350674 -0.295706 2.51474 145 116 98
0.387583 -0.297356 2.53633 139 111 90
0.418774 -0.294247 2.51742 140 115 84
0.456236 -0.295884 2.53903 142 110 99
0.490562 -0.295149 2.54038 141 115 92
0.524888 -0.294413 2.54172 140 116 80
0.559215 -0.293677 2.54307 140 113 92
0.598285 -0.295402 2.56575 135 103 88
0.637937 -0.297115 2.58846 140 118 94
0.672844 -0.296367 2.58983 138 108 80
0.707751 -0.295619 2.5912 135 111 85
0.742659 -0.294871 2.59257 137 110 89
0.783763 -0.296552 2.61533 134 106 94
0.812473 -0.293375 2.59531 137 109 88
0.84738 -0.292627 2.59668 132 108 84
0.889355 -0.294289 2.61947 133 108 77
0.924553 -0.293535 2.62086 132 104 90
0.959751 -0.292781 2.62224 120 103 75
0.987009 -0.289634 2.60216 128 101 92
0.997619 -0.281842 2.54014 128 108 83
1.00773 -0.274426 2.48113 123 105 85
1.02502 -0.269419 2.44354 129 104 84
1.03389 -0.262518 2.3885 135 103 88
1.05019 -0.257898 2.3539 125 108 78
1.06598 -0.253411 2.32028 130 108 95
1.0737 -0.247266 2.27124 130 106 96
1.08838 -0.243047 2.23959 134 112 91
1.11071 -0.240738 2.22536 131 109 95
-1.12135 -0.24343 1.99254 195 179 164
-1.10097 -0.2444 2.00642 204 189 182
-1.0731 -0.243802 2.00751 198 186 174
-1.05273 -0.24488 2.0224 191 175 159
-1.03196 -0.24595 2.03731 204 184 185
-1.01081 -0.247011 2.05223 207 190 182
-0.989271 -0.248064 2.06716 183 165 165
-0.960629 -0.24745 2.06829 204 185 179
-0.931987 -0.246836 2.06941 205 188 181
-0.909673 -0.247873 2.08438 190 172 170
-0.88741 -0.249018 2.10035 194 181 165
-0.852001 -0.246637 2.08664 203 185 185
-0.835481 -0.249528 2.11748 197 179 165
-0.806231 -0.248901 2.11863 202 185 178
-0.782723 -0.25002 2.13465 199 182 174
-0.758801 -0.25113 2.15069 194 181 164
-0.729135 -0.250495 2.15185 205 185 176
-0.699469 -0.249859 2.15301 199 181 169
-0.669804 -0.249223 2.15418 189 173 158
-0.644844 -0.250311 2.17025 202 182 173
-0.619769 -0.251505 2.18734 164 145 138
-0.594252 -0.252689 2.20445 194 180 167
-0.563936 -0.252039 2.20564 189 170 166
-0.537755 -0.253209 2.22277 188 171 163
-0.507218 -0.252554 2.22397 189 169 162
-0.480373 -0.25371 2.24112 188 170 158
-0.449615 -0.253051 2.24233 185 171 162
-0.422309 -0.254305 2.26051 159 139 130
-0.394533 -0.255549 2.27871 187 169 159
-0.360323 -0.252976 2.26294 187 169 157
-0.334823 -0.256108 2.29816 182 164 152
-0.30336 -0.255434 2.2994 183 164 157
-0.274173 -0.256647 2.31765 180 163 153
-0.242475 -0.255968 2.3189 177 157 148
-0.212689 -0.257277 2.33818 175 152 146
-0.179077 -0.254609 2.32139 189 169 158
-0.148794 -0.255908 2.34069 181 163 153
-0.116846 -0.255223 2.34194 160 139 134
-0.0848986 -0.254538 2.3432 176 156 145
-0.0529511 -0.253854 2.34445 159 137 126
-0.0214227 -0.255125 2.36381 174 157 149
0.0100645 -0.262564 2.44052 152 135 119
0.0435562 -0.26823 2.50122 108 90 68
0.0768778 -0.263188 2.46227 140 118 95
0.109766 -0.260428 2.44444 141 115 98
0.143871 -0.261752 2.4649 141 114 95
0.177367 -0.261034 2.46621 143 117 94
0.212334 -0.262449 2.48771 146 120 95
0.24436 -0.259599 2.46884 143 117 94
0.281904 -0.263121 2.51057 139 114 92
0.318254 -0.264506 2.53213 132 112 88
0.352581 -0.263771 2.53348 139 113 86
0.386907 -0.263035 2.53482 141 114 95
0.421233 -0.262299 2.53617 137 112 90
0.45556 -0.261564 2.53752 139 110 92
0.489886 -0.260828 2.53887 144 115 85
0.52837 -0.262275 2.56151 138 112 99
0.562987 -0.261533 2.56287 137 116 87
0.597604 -0.260791 2.56423 135 113 89
0.637249 -0.262214 2.58692 137 110 81
0.672157 -0.261465 2.58829 134 103 85
0.712674 -0.262869 2.61102 136 110 75
0.747871 -0.262115 2.6124 128 104 80
0.783069 -0.26136 2.61378 131 104 85
0.818267 -0.260606 2.61516 130 97 82
0.846693 -0.257725 2.59514 133 112 83
0.888662 -0.259097 2.61793 122 99 81
0.92386 -0.258343 2.61931 131 103 91
0.959057 -0.257589 2.62069 129 104 84
0.986321 -0.254733 2.60063 136 104 93
0.996948 -0.247797 2.53865 124 103 84
1.01478 -0.243088 2.49909 134 108 93
1.03234 -0.238601 2.46153 132 107 87
1.03327 -0.230575 2.3871 136 114 91
1.04957 -0.226439 2.35251 141 105 105
1.05753 -0.220751 2.3015 138 108 82
1.07311 -0.216956 2.2699 138 110 99
1.08779 -0.213179 2.23827 133 111 87
1.1026 -0.209616 2.20866 127 105 91
-1.12189 -0.215746 1.99132 183 172 152
-1.10152 -0.216536 2.00519 204 187 180
-1.07365 -0.215939 2.00629 198 182 167
-1.05328 -0.216824 2.02117 177 157 150
-1.03252 -0.217699 2.03606 209 190 183
-1.01848 -0.22004 2.06478 204 186 184
-0.989835 -0.219427 2.0659 172 156 156
-0.967912 -0.220278 2.08084 202 190 174
-0.939077 -0.21966 2.08198 201 181 180
-0.917025 -0.220602 2.09793 180 160 159
-0.887982 -0.21998 2.09907 208 187 194
-0.858939 -0.219357 2.10021 203 185 183
-0.836058 -0.220282 2.1162 187 167 158
-0.806807 -0.219655 2.11734 202 182 173
-0.783303 -0.220567 2.13335 195 178 171
-0.759385 -0.22147 2.14938 187 172 167
-0.729719 -0.220834 2.15054 204 183 180
-0.700054 -0.220198 2.15171 201 182 176
-0.675306 -0.221083 2.16777 194 178 163
-0.650456 -0.22206 2.18484 196 176 169
-0.620362 -0.221415 2.18602 163 146 139
-0.594849 -0.222378 2.20311 197 178 174
-0.564533 -0.221728 2.2043 192 172 174
-0.542495 -0.224275 2.23735 188 169 162
-0.511737 -0.223616 2.23856 188 168 161
-0.484906 -0.224645 2.25671 185 167 153
-0.450221 -0.222298 2.24098 187 170 160
-0.419463 -0.221638 2.24218 155 131 127
-0.395148 -0.224325 2.27734 181 163 153
-0.36392 -0.223656 2.27856 185 166 152
-0.335443 -0.22465 2.29678 177 160 153
-0.30398 -0.223975 2.29801 186 168 154
-0.274798 -0.224954 2.31626 181 163 153
-0.243099 -0.224275 2.3175 169 150 144
-0.213318 -0.225335 2.33678 178 158 149
-0.181371 -0.22465 2.33803 179 163 147
-0.149423 -0.223965 2.33929 174 157 147
-0.117476 -0.223281 2.34054 152 136 111
-0.08645 -0.224314 2.35986 184 165 161
-0.0542535 -0.223624 2.36113 158 142 119
-0.022057 -0.222934 2.36239 181 158 152
0.0092249 -0.231133 2.45816 150 127 111
0.0428854 -0.234185 2.49972 106 88 76
0.0762179 -0.229697 2.46079 138 112 87
0.109714 -0.228979 2.46211 145 117 96
0.143211 -0.228261 2.46342 146 122 94
0.179084 -0.231266 2.50507 144 117 96
0.211669 -0.228681 2.48623 143 118 96
0.245442 -0.227957 2.48755 149 117 92
0.281233 -0.229077 2.50908 141 118 87
0.317578 -0.230185 2.53062 139 119 95
0.351904 -0.22945 2.53197 143 116 89
0.386231 -0.228714 2.53331 142 115 86
0.423838 -0.22989 2.55591 139 112 93
0.458455 -0.229148 2.55727 139 111 90
0.493071 -0.228406 2.55863 137 111 86
0.527688 -0.227664 2.55999 142 111 93
0.562305 -0.226922 2.56135 140 107 92
0.596922 -0.22618 2.56271 139 113 90
0.646848 -0.231149 2.62904 135 109 86
0.676783 -0.228431 2.60809 135 116 86
0.71198 -0.227677 2.60947 132 104 90
0.747178 -0.226923 2.61085 139 112 95
0.782376 -0.226168 2.61223 125 105 80
0.824357 -0.227344 2.63601 128 106 83
0.859859 -0.226584 2.6374 136 107 73
0.887969 -0.223905 2.61638 124 100 74
0.923166 -0.223151 2.61776 126 98 77
0.974366 -0.226205 2.66403 130 103 84
0.985634 -0.219831 2.59909 123 102 81
1.0041 -0.215472 2.55757 131 102 94
1.00642 -0.207969 2.4782 124 100 90
1.03169 -0.205635 2.46008 132 108 98
1.04043 -0.200164 2.4041 130 104 91
1.04895 -0.194981 2.35113 125 99 84
1.05693 -0.189998 2.30014 125 100 80
1.06492 -0.185298 2.25218 128 108 97
1.07988 -0.182052 2.22159 134 107 90
1.10202 -0.180163 2.20737 130 103 82
-1.12994 -0.189271 2.00287 158 143 138
-1.11784 -0.191266 2.03149 199 184 177
-1.08959 -0.19066 2.0326 193 180 171
-1.06133 -0.190055 2.03371 170 155 150
-1.04038 -0.190733 2.04861 199 186 178
-1.01904 -0.191403 2.06352 200 183 176
-0.990399 -0.190789 2.06464 174 155 149
-0.96848 -0.191446 2.07958 200 183 175
-0.939645 -0.190828 2.08071 197 180 173
-0.924386 -0.192917 2.11146 166 141 136
-0.895135 -0.19229 2.11261 198 181 173
-0.865884 -0.191663 2.11376 203 184 178
-0.836634 -0.191036 2.11491 178 160 148
-0.813342 -0.191745 2.1309 200 182 178
-0.789635 -0.192445 2.14691 199 178 177
-0.759969 -0.191809 2.14808 195 170 163
-0.73564 -0.192495 2.16411 199 178 173
-0.705767 -0.191855 2.16528 194 175 168
-0.675894 -0.191215 2.16645 196 172 170
-0.656077 -0.193367 2.1994 200 180 179
-0.625762 -0.192717 2.20059 160 143 136
-0.595446 -0.192067 2.20178 191 174 166
-0.565131 -0.191418 2.20297 193 174 168
-0.543101 -0.193522 2.236 190 168 155
-0.512343 -0.192863 2.23721 190 170 169
-0.485517 -0.193657 2.25535 187 165 154
-0.454524 -0.192992 2.25657 186 167 160
-0.426992 -0.193771 2.27474 158 139 132
-0.39899 -0.19454 2.29292 180 166 155
-0.367527 -0.193866 2.29416 185 165 154
-0.336063 -0.193191 2.2954 180 156 154
-0.3046 -0.192517 2.29663 180 163 153
-0.277843 -0.194762 2.33286 176 162 149
-0.245895 -0.194077 2.33412 176 156 149
-0.213948 -0.193392 2.33537 181 158 150
-0.182 -0.192708 2.33663 180 159 156
-0.151477 -0.193503 2.35592 179 160 146
-0.119281 -0.192813 2.35718 162 141 136
-0.0880111 -0.193592 2.3765 182 161 142
-0.0548878 -0.191433 2.35971 157 138 124
-0.0231203 -0.192201 2.37905 174 150 148
0.00856499 -0.197642 2.45669 151 128 112
0.0422146 -0.200141 2.49822 98 80 60
0.0759112 -0.197809 2.47944 136 108 86
0.109055 -0.195488 2.46064 145 119 94
0.143457 -0.196361 2.48209 141 120 91
0.17723 -0.195637 2.48342 147 121 86
0.212463 -0.196493 2.5049 145 119 92
0.246513 -0.195763 2.50624 149 118 97
0.280563 -0.195033 2.50758 144 113 95
0.316902 -0.195865 2.52911 147 114 95
0.351228 -0.195129 2.53046 144 113 92
0.388539 -0.19602 2.55303 141 115 98
0.423156 -0.195278 2.55439 138 112 87
0.457773 -0.194536 2.55575 137 110 89
0.492389 -0.193795 2.55711 144 112 97
0.527006 -0.193053 2.55847 134 114 87
0.561623 -0.192311 2.55983 139 111 97
0.59624 -0.191569 2.56119 138 107 86
0.640892 -0.193994 2.60516 131 105 88
0.68165 -0.194892 2.62887 131 105 90
0.717152 -0.194131 2.63027 132 104 90
0.752654 -0.19337 2.63166 132 104 82
0.788156 -0.192609 2.63305 130 102 88
0.823658 -0.191848 2.63445 130 105 75
0.85916 -0.191087 2.63584 133 104 86
0.902048 -0.19194 2.65964 125 97 93
0.930163 -0.189566 2.63863 125 107 71
0.97366 -0.190405 2.66245 121 93 72
0.984946 -0.184929 2.59755 131 110 89
0.995607 -0.179709 2.53565 130 102 88
1.00577 -0.174741 2.47674 125 100 80
1.02309 -0.17131 2.43922 129 104 82
1.03201 -0.16669 2.38429 140 115 93
1.04833 -0.163522 2.34974 127 104 88
1.05632 -0.159245 2.29879 138 112 95
1.07191 -0.156334 2.26724 137 104 95
1.08661 -0.153443 2.23565 127 105 94
1.10144 -0.150709 2.20607 132 107 87
-1.13857 -0.162514 2.01539 162 149 141
-1.1184 -0.163015 2.03025 199 178 183
-1.09014 -0.16241 2.03136 200 181 175
-1.06189 -0.161804 2.03247 180 162 158
-1.04094 -0.162289 2.04736 200 184 169
-1.01961 -0.162765 2.06226 201 181 190
-0.997884 -0.163233 2.07718 180 162 162
-0.976256 -0.16377 2.09309 194 174 176
-0.940213 -0.161997 2.07944 193 178 175
-0.924962 -0.163671 2.11018 170 152 148
-0.895711 -0.163044 2.11133 196 183 175
-0.866461 -0.162417 2.11247 194 179 176
-0.83721 -0.16179 2.11362 179 154 157
-0.813922 -0.162292 2.12961 201 176 179
-0.790219 -0.162784 2.14561 194 174 163
-0.760554 -0.162148 2.14677 178 161 153
-0.741925 -0.163816 2.17864 198 179 173
-0.711831 -0.163171 2.17983 191 177 168
-0.681736 -0.162526 2.18101 187 166 161
-0.656675 -0.163056 2.19807 185 172 164
-0.626359 -0.162406 2.19926 162 143 139
-0.600634 -0.162922 2.21634 187 166 165
-0.565728 -0.161107 2.20164 194 175 169
-0.543707 -0.162769 2.23465 187 167 156
-0.512949 -0.16211 2.23586 184 169 166
-0.486127 -0.162668 2.25399 177 159 147
-0.458836 -0.163217 2.27214 187 170 163
-0.431073 -0.163756 2.29031 153 135 123
-0.39961 -0.163082 2.29154 183 164 157
-0.36515 -0.161209 2.27582 184 166 156
-0.339444 -0.162926 2.31098 180 162 158
-0.307745 -0.162246 2.31223 182 163 156
-0.278472 -0.162819 2.33146 179 157 146
-0.246524 -0.162135 2.33271 177 152 147
-0.214577 -0.16145 2.33397 175 157 147
-0.184308 -0.162002 2.35324 178 165 157
-0.152112 -0.161312 2.3545 172 155 147
-0.121096 -0.161847 2.3738 159 137 124
-0.0877186 -0.159932 2.35703 175 155 146
-0.0569257 -0.161739 2.39541 158 134 130
-0.0242175 -0.161038 2.39669 172 154 144
0.00790509 -0.16415 2.45522 141 119 108
0.0415438 -0.166097 2.49672 89 73 60
0.0752458 -0.164041 2.47795 142 112 102
0.109019 -0.163317 2.47928 146 114 99
0.143693 -0.163908 2.50073 143 119 93
0.177743 -0.163178 2.50207 146 116 105
0.210338 -0.161146 2.48326 144 117 100
0.245842 -0.161719 2.50474 145 118 89
0.279892 -0.160989 2.50608 147 120 99
0.318624 -0.162893 2.54879 143 114 100
0.355929 -0.163494 2.57135 141 114 97
0.387857 -0.161409 2.55151 132 114 94
0.422474 -0.160667 2.55287 145 118 89
0.457091 -0.159925 2.55423 141 111 100
0.491707 -0.159183 2.55559 139 115 91
0.526324 -0.158442 2.55694 138 113 93
0.569803 -0.16031 2.60085 128 105 87
0.605001 -0.159556 2.60223 137 109 95
0.640198 -0.158802 2.60361 130 104 87
0.675396 -0.158047 2.60499 135 108 79
0.722312 -0.159976 2.65104 130 100 90
0.758118 -0.159209 2.65244 132 109 77
0.793924 -0.158441 2.65385 123 97 98
0.82973 -0.157674 2.65525 127 100 89
0.865537 -0.156907 2.65666 129 103 80
0.901343 -0.156139 2.65806 124 96 84
0.937149 -0.155372 2.65947 130 102 80
0.972955 -0.154605 2.66088 123 101 90
0.992175 -0.151259 2.61743 121 102 87
0.994936 -0.145665 2.53415 120 98 85
1.0128 -0.142615 2.49467 129 100 94
1.02244 -0.138607 2.43778 122 100 76
1.03916 -0.135782 2.40127 138 110 89
1.04771 -0.132064 2.34836 130 104 89
1.06354 -0.129458 2.31482 137 111 98
1.07131 -0.126024 2.2659 133 97 75
1.08603 -0.123574 2.23433 134 109 104
1.10086 -0.121256 2.20478 143 112 107
-1.13912 -0.134457 2.01416 180 163 153
-1.11895 -0.134765 2.02901 193 181 165
-1.0907 -0.134159 2.03012 192 175 168
-1.06995 -0.134455 2.04499 183 173 161
-1.0415 -0.133845 2.0461 194 175 177
-1.02729 -0.13502 2.07478 194 177 169
-1.00587 -0.135354 2.09068 189 172 162
-0.976828 -0.134732 2.09182 189 175 174
-0.954789 -0.135052 2.10774 194 176 172
-0.925538 -0.134425 2.10889 177 155 144
-0.902877 -0.134732 2.12484 199 182 164
-0.873419 -0.134101 2.126 194 175 171
-0.843961 -0.13347 2.12715 169 151 147
-0.814503 -0.132838 2.12831 195 178 171
-0.790804 -0.133123 2.1443 189 171 169
-0.76669 -0.133399 2.16031 166 147 141
-0.742518 -0.133727 2.17732 193 174 170
-0.712424 -0.133082 2.1785 190 171 167
-0.687587 -0.133395 2.19554 187 169 157
-0.657272 -0.132745 2.19673 194 174 165
-0.631772 -0.133044 2.2138 170 155 150
-0.601235 -0.13239 2.215 187 166 161
-0.570698 -0.131735 2.2162 191 172 166
-0.548725 -0.133009 2.25019 184 164 155
-0.521907 -0.133332 2.26831 184 166 164
-0.490679 -0.132663 2.26954 168 150 138
-0.459451 -0.131994 2.27076 185 167 155
-0.431693 -0.132297 2.28892 158 144 133
-0.403465 -0.132591 2.3071 172 155 145
-0.368766 -0.130949 2.29139 178 161 154
-0.340068 -0.131232 2.30959 173 155 141
-0.30837 -0.130553 2.31083 176 159 149
-0.279101 -0.130877 2.33005 173 155 145
-0.249335 -0.13119 2.34929 176 155 150
-0.219071 -0.131493 2.36855 170 152 142
-0.186626 -0.130798 2.36983 181 156 149
-0.15418 -0.130102 2.3711 173 154 148
-0.121735 -0.129407 2.37238 159 142 124
-0.0892895 -0.128712 2.37365 173 156 146
-0.05757 -0.129036 2.39397 156 137 120
-0.0248618 -0.128335 2.39526 175 153 139
0.00724518 -0.130659 2.45374 148 123 101
0.040873 -0.132053 2.49523 96 78 64
0.0749227 -0.131323 2.49656 135 111 85
0.108972 -0.130593 2.4979 137 112 82
0.143022 -0.129863 2.49924 140 112 98
0.177072 -0.129134 2.50057 141 114 97
0.211122 -0.128404 2.50191 141 114 97
0.245171 -0.127674 2.50325 145 115 89
0.279221 -0.126945 2.50458 143 119 85
0.317942 -0.128282 2.54727 150 117 102
0.352558 -0.12754 2.54863 141 113 91
0.387175 -0.126798 2.54999 135 109 92
0.425056 -0.127096 2.57256 136 108 87
0.456409 -0.125314 2.5527 133 105 83
0.491025 -0.124572 2.55406 133 110 76
0.529777 -0.124852 2.57667 128 109 76
0.56911 -0.125119 2.5993 124 109 78
0.604307 -0.124364 2.60068 135 111 85
0.649994 -0.12571 2.64665 134 113 86
0.6858 -0.124943 2.64806 133 109 75
0.721607 -0.124176 2.64946 132 108 74
0.757413 -0.123408 2.65087 127 100 81
0.793219 -0.122641 2.65227 129 106 64
0.829025 -0.121874 2.65368 128 101 72
0.864831 -0.121106 2.65508 134 102 87
0.900637 -0.120339 2.65649 124 94 86
0.936443 -0.119572 2.6579 126 99 69
0.97225 -0.118804 2.6593 119 101 79
0.991481 -0.116067 2.61588 134 111 69
0.994265 -0.111621 2.53265 125 98 91
1.01214 -0.109123 2.4932 130 108 85
1.02975 -0.106738 2.45573 126 103 87
1.03852 -0.10359 2.39985 133 105 91
1.04709 -0.100606 2.34698 125 102 86
1.06292 -0.0984694 2.31346 128 102 87
1.07829 -0.096396 2.28093 126 104 81
1.09323 -0.0943846 2.24939 133 111 90
1.10779 -0.0924343 2.21884 134 105 89
-1.14777 -0.10712 2.02666 186 174 160
-1.11951 -0.106515 2.02777 191 177 168
-1.09896 -0.10662 2.04262 191 180 174
-1.07051 -0.106011 2.04374 180 166 165
-1.04206 -0.105401 2.04485 199 182 174
-1.03549 -0.106938 2.08826 193 171 173
-1.00644 -0.106315 2.0894 197 182 175
-0.9774 -0.105693 2.09054 192 173 167
-0.955365 -0.105806 2.10646 189 175 164
-0.926115 -0.105179 2.1076 187 169 155
-0.903457 -0.105279 2.12354 196 180 164
-0.873999 -0.104647 2.1247 190 175 168
-0.844541 -0.104016 2.12586 175 160 153
-0.821054 -0.104098 2.14183 191 172 165
-0.797152 -0.104171 2.15782 198 178 171
-0.767279 -0.103531 2.15899 165 145 138
-0.748816 -0.104384 2.19183 197 178 172
-0.713017 -0.102992 2.17718 193 173 174
-0.688185 -0.103084 2.19421 180 158 161
-0.66291 -0.103167 2.21126 192 172 165
-0.632374 -0.102512 2.21245 183 166 158
-0.606435 -0.102581 2.22953 186 165 160
-0.575677 -0.101922 2.23073 184 167 159
-0.549335 -0.10202 2.24883 181 160 155
-0.526704 -0.102862 2.28383 182 164 160
-0.49524 -0.102188 2.28507 167 147 148
-0.463777 -0.101513 2.2863 181 160 155
-0.432313 -0.100839 2.28754 167 149 137
-0.40409 -0.100897 2.3057 180 163 156
-0.372391 -0.100218 2.30695 181 162 155
-0.340693 -0.0995388 2.30819 172 152 145
-0.308994 -0.0988594 2.30944 185 163 152
-0.282166 -0.099689 2.34661 175 154 149
-0.24997 -0.098999 2.34788 172 151 146
-0.21971 -0.0990528 2.36713 174 158 145
-0.187265 -0.0983575 2.3684 177 160 152
-0.15482 -0.0976621 2.36967 166 147 141
-0.123631 -0.097735 2.38996 155 137 125
-0.0909226 -0.0970341 2.39125 171 153 143
-0.0582144 -0.0963331 2.39253 152 136 123
-0.0255062 -0.0956321 2.39382 172 154 140
0.0063689 -0.0979532 2.47233 142 116 101
0.0402624 -0.0987875 2.5138 90 71 56
0.0742519 -0.0972787 2.49506 144 113 92
0.107688 -0.0957818 2.47631 142 119 103
0.142351 -0.0958193 2.49774 143 117 90
0.176401 -0.0950896 2.49907 147 118 100
0.210451 -0.0943598 2.50041 144 119 97
0.244501 -0.0936301 2.50175 145 114 93
0.280547 -0.0936379 2.52323 146 119 89
0.31726 -0.0936705 2.54575 141 117 89
0.351876 -0.0929286 2.5471 141 114 87
0.386493 -0.0921867 2.54846 139 112 93
0.427626 -0.0929439 2.59222 136 109 92
0.459275 -0.0914463 2.57239 139 107 94
0.490343 -0.0899611 2.55254 133 105 83
0.529089 -0.0899501 2.57513 136 109 88
0.568416 -0.0899266 2.59775 130 106 80
0.608548 -0.0899249 2.6214 128 101 80
0.649289 -0.0899101 2.64507 134 100 90
0.685095 -0.0891427 2.64648 133 108 86
0.720901 -0.0883754 2.64789 127 105 82
0.756707 -0.087608 2.64929 131 102 86
0.799263 -0.0875934 2.67404 126 98 84
0.82832 -0.0860733 2.6521 129 101 80
0.871511 -0.086045 2.67688 128 102 77
0.907635 -0.0852708 2.6783 127 100 79
0.94376 -0.0844967 2.67971 124 102 78
0.971544 -0.0830038 2.65773 122 103 89
0.982883 -0.0802248 2.59295 125 103 79
1.0014 -0.0781894 2.55153 131 106 84
1.01148 -0.0756324 2.49172 118 89 75
1.02116 -0.0732011 2.43491 120 99 78
1.03789 -0.071399 2.39844 129 109 82
1.05405 -0.0696482 2.36295 124 103 84
1.06231 -0.0674812 2.3121 130 106 96
1.07012 -0.0654021 2.26324 125 102 88
1.08485 -0.063838 2.2317 134 107 90
1.09969 -0.0623493 2.20218 137 104 95
-1.14832 -0.0788699 2.02541 187 169 165
-1.12797 -0.0787862 2.04025 187 168 170
-1.09952 -0.0781765 2.04137 184 171 178
-1.07107 -0.0775668 2.04249 184 168 168
-1.04994 -0.0774665 2.05735 192 177 172
-1.03606 -0.0778993 2.08698 195 175 174
-1.01444 -0.0778138 2.10287 184 166 166
-0.985192 -0.0771869 2.10402 189 170 164
-0.955941 -0.0765601 2.10517 186 171 164
-0.933496 -0.0764567 2.12109 190 172 170
-0.904038 -0.0758254 2.12225 192 176 163
-0.874579 -0.0751941 2.12341 189 172 162
-0.851304 -0.075073 2.13936 188 169 155
-0.821638 -0.0744373 2.14053 185 171 162
-0.803892 -0.0748376 2.17231 189 174 167
-0.779729 -0.0747226 2.1893 168 149 143
-0.749413 -0.074073 2.19049 188 170 160
-0.719098 -0.0734233 2.19168 183 167 167
-0.694049 -0.0732894 2.20871 170 153 143
-0.663512 -0.0726349 2.20991 189 168 163
-0.632975 -0.0719805 2.21111 180 159 156
-0.607041 -0.0718276 2.22817 184 165 161
-0.580939 -0.0716963 2.24625 178 163 158
-0.554366 -0.0715549 2.26434 173 156 148
-0.527323 -0.0714035 2.28245 179 164 161
-0.49586 -0.0707292 2.28368 162 142 135
-0.464396 -0.0700549 2.28492 182 164 152
-0.436413 -0.0698832 2.30307 165 148 141
-0.404714 -0.0692039 2.30431 175 156 149
-0.373016 -0.0685246 2.30555 177 158 151
-0.341317 -0.0678453 2.3068 171 152 145
-0.312308 -0.0676768 2.32599 176 158 144
-0.28524 -0.0680033 2.36315 174 156 144
-0.252795 -0.0673079 2.36443 176 159 151
-0.2224 -0.067135 2.38467 169 152 142
-0.189692 -0.066434 2.38596 181 160 157
-0.156983 -0.0657331 2.38724 171 151 144
-0.124275 -0.0650321 2.38853 159 140 126
-0.091567 -0.0643311 2.38981 166 146 139
-0.0588588 -0.0636302 2.39109 153 135 115
-0.0266241 -0.0634178 2.41141 170 153 135
0.00570354 -0.0641855 2.47085 140 117 109
0.0395862 -0.0644667 2.51229 85 65 54
0.0735811 -0.0632345 2.49357 134 107 86
0.107631 -0.0625048 2.4949 143 116 95
0.141681 -0.0617751 2.49624 142 116 93
0.176891 -0.0615241 2.51768 140 114 91
0.20978 -0.0603156 2.49891 139 113 100
0.245544 -0.0600528 2.52037 139 114 92
0.27987 -0.0593172 2.52172 139 111 90
0.316578 -0.0590593 2.54422 141 109 98
0.353866 -0.058789 2.56675 139 113 88
0.388773 -0.0580409 2.56812 137 111 88
0.42368 -0.0572928 2.56949 135 106 88
0.458587 -0.0565447 2.57086 134 112 73
0.497328 -0.0562433 2.59344 130 105 85
0.536845 -0.0559504 2.61705 135 106 88
0.572347 -0.0551895 2.61844 131 105 88
0.607849 -0.0544287 2.61984 133 108 86
0.648584 -0.0541097 2.6435 132 105 84
0.68439 -0.0533424 2.64491 126 102 78
0.720196 -0.052575 2.64631 127 107 74
0.762427 -0.0522491 2.67103 126 102 76
0.798551 -0.051475 2.67245 123 99 75
0.834675 -0.0507008 2.67387 129 94 88
0.870799 -0.0499266 2.67529 130 102 80
0.906924 -0.0491524 2.67671 130 101 83
0.943048 -0.0483783 2.67812 128 101 71
0.970839 -0.0472035 2.65615 122 104 84
0.990094 -0.0456828 2.61278 128 107 90
1.00072 -0.0438686 2.55002 129 106 88
1.0189 -0.0424718 2.51062 129 101 87
1.02845 -0.0408066 2.45283 123 98 93
1.03726 -0.0392077 2.39702 127 100 89
1.05342 -0.0379547 2.36155 125 106 91
1.0617 -0.0364929 2.31073 127 98 90
1.07709 -0.0353321 2.27824 130 103 94
1.09205 -0.0342057 2.24674 130 108 87
1.09911 -0.0328959 2.20089 134 105 99
-1.14888 -0.0506195 2.02417 177 167 158
-1.12853 -0.0503422 2.039 181 166 159
-1.10779 -0.0500567 2.05385 190 171 173
-1.07915 -0.0494429 2.05497 178 162 162
-1.05783 -0.0491448 2.06984 183 171 159
-1.03663 -0.0488608 2.0857 191 172 165
-1.01502 -0.0485678 2.10159 185 170 167
-0.985768 -0.047941 2.10273 184 167 157
-0.963534 -0.0476347 2.11864 181 171 162
-0.934076 -0.0470034 2.1198 190 171 167
-0.904618 -0.0463721 2.12095 191 172 165
-0.881554 -0.046048 2.13689 187 170 162
-0.851888 -0.0454122 2.13806 186 165 164
-0.828202 -0.0450748 2.15402 186 165 160
-0.810642 -0.0450616 2.18678 185 164 159
-0.780326 -0.0444119 2.18797 178 154 142
-0.75001 -0.0437623 2.18916 188 162 163
-0.725187 -0.0434118 2.20617 184 169 162
-0.694651 -0.0427574 2.20737 164 147 140
-0.669164 -0.0423928 2.22441 178 164 151
-0.638406 -0.0417336 2.22561 182 166 153
-0.612543 -0.0413723 2.24367 182 166 153
-0.58155 -0.040708 2.24488 183 164 160
-0.559407 -0.0406193 2.27983 170 149 144
-0.527943 -0.039945 2.28106 181 161 152
-0.49648 -0.0392707 2.2823 160 139 136
-0.468736 -0.0388691 2.30043 176 157 151
-0.437038 -0.0381898 2.30167 170 150 143
-0.405339 -0.0375104 2.30292 169 152 136
-0.376832 -0.0371038 2.32207 170 155 148
-0.344885 -0.0364191 2.32333 167 149 139
-0.312937 -0.0357344 2.32458 168 154 141
-0.28588 -0.0355631 2.36173 177 154 148
-0.253434 -0.0348678 2.363 176 159 152
-0.223044 -0.0344321 2.38323 171 147 145
-0.190336 -0.0337311 2.38452 175 153 142
-0.157628 -0.0330302 2.3858 168 151 143
-0.12492 -0.0323292 2.38709 155 137 125
-0.0932156 -0.0318654 2.40737 168 151 144
-0.0602446 -0.0311588 2.40867 159 135 133
-0.0272737 -0.0304522 2.40996 170 153 133
0.00481091 -0.0306497 2.4894 147 113 101
0.0389099 -0.0301459 2.51078 98 76 62
0.0729103 -0.0291903 2.49207 139 115 91
0.10696 -0.0284605 2.49341 141 113 101
0.141889 -0.027939 2.51482 141 114 95
0.176215 -0.0272033 2.51617 146 121 90
0.210542 -0.0264677 2.51752 142 120 81
0.244868 -0.025732 2.51886 139 122 96
0.279194 -0.0249964 2.52021 142 116 91
0.315896 -0.0244481 2.5427 141 111 87
0.353178 -0.0238874 2.56521 137 117 82
0.391041 -0.0233143 2.58774 140 112 90
0.426239 -0.02256 2.58913 141 111 85
0.461437 -0.0218057 2.59051 136 115 94
0.496634 -0.0210513 2.59189 129 108 81
0.536146 -0.0204542 2.61549 134 108 95
0.571648 -0.0196934 2.61688 136 107 89
0.60715 -0.0189326 2.61828 129 98 80
0.647878 -0.0183094 2.64192 128 102 79
0.689467 -0.0176791 2.66661 132 106 79
0.725591 -0.0169049 2.66803 126 99 78
0.761715 -0.0161307 2.66945 123 108 79
0.797839 -0.0153565 2.67086 125 95 87
0.833964 -0.0145824 2.67228 122 97 67
0.870088 -0.0138082 2.6737 122 92 84
0.906212 -0.013034 2.67512 119 93 76
0.942336 -0.0122598 2.67654 120 93 82
0.970133 -0.0114031 2.65458 125 103 90
0.989401 -0.0104909 2.61123 125 102 88
0.992253 -0.00948787 2.52816 120 95 75
1.01823 -0.00870416 2.50914 119 103 70
1.01987 -0.0077953 2.43203 126 102 98
1.02886 -0.00697843 2.37726 131 101 93
1.0528 -0.00626117 2.36016 129 108 81
1.06109 -0.00550461 2.30937 128 102 89
1.07649 -0.0048002 2.2769 128 104 80
1.08367 -0.00410153 2.22908 125 101 89
1.09853 -0.00344257 2.19959 127 107 80
-1.15754 -0.022508 2.03663 175 156 149
-1.12909 -0.0218983 2.03775 172 152 154
-1.10835 -0.0214192 2.05259 187 170 163
-1.07219 -0.020679 2.03998 183 172 166
-1.0584 -0.0203137 2.06857 184 170 161
-1.04485 -0.0199488 2.09915 189 170 163
-1.0156 -0.0193219 2.1003 184 169 164
-0.986345 -0.018695 2.10145 178 164 151
-0.964115 -0.0181813 2.11734 191 173 163
-0.934656 -0.01755 2.1185 186 166 159
-0.911804 -0.017023 2.13442 182 166 150
-0.888536 -0.016487 2.15036 187 168 161
-0.858663 -0.0158468 2.15153 179 163 148
-0.835172 -0.0153036 2.16848 180 162 150
-0.811239 -0.014751 2.18545 186 168 158
-0.780923 -0.0141013 2.18664 182 164 154
-0.756326 -0.0135343 2.20363 189 173 160
-0.725789 -0.0128799 2.20483 182 169 163
-0.695252 -0.0122255 2.20603 154 137 129
-0.66977 -0.0116396 2.22305 182 161 158
-0.644147 -0.0110482 2.24109 183 165 153
-0.618053 -0.0104467 2.25914 182 164 154
-0.58216 -0.00971978 2.24352 182 163 156
-0.560027 -0.00916092 2.27845 172 155 145
-0.528563 -0.00848663 2.27968 183 163 154
-0.501059 -0.00785494 2.29779 155 136 122
-0.469361 -0.00717561 2.29903 176 157 151
-0.437662 -0.00649628 2.30028 171 147 143
-0.409409 -0.00584605 2.31942 172 150 137
-0.380658 -0.00518516 2.33857 175 154 153
-0.345514 -0.00447671 2.32192 166 145 140
-0.316265 -0.00380515 2.3411 171 151 150
-0.289105 -0.0031311 2.37923 162 141 138
-0.256397 -0.00243013 2.38051 172 152 145
-0.223689 -0.00172917 2.3818 173 148 143
-0.19098 -0.0010282 2.38308 175 152 146
-0.158272 -0.00032723 2.38436 172 149 143
-0.126836 0.000393693 2.40463 166 143 135
-0.0938651 0.00110029 2.40592 164 146 136
-0.0608942 0.00180689 2.40722 159 136 118
-0.0279232 0.00251349 2.40851 176 148 145
0.00390737 0.00343925 2.50792 137 119 83
0.0382337 0.00417489 2.50927 88 68 61
0.0722395 0.00485396 2.49057 138 115 81
0.106886 0.00564618 2.51196 145 119 102
0.141213 0.00638183 2.51331 140 113 94
0.175539 0.00711748 2.51466 138 114 88
0.209865 0.00785312 2.51601 140 114 91
0.24598 0.0086793 2.53846 146 119 98
0.280597 0.00942117 2.53982 137 112 90
0.317583 0.010266 2.5623 138 115 83
0.35515 0.0111233 2.58481 142 117 87
0.390348 0.0118776 2.5862 136 110 83
0.428941 0.0127594 2.60975 136 109 82
0.464443 0.0135202 2.61114 131 109 85
0.499944 0.0142811 2.61253 134 108 81
0.535446 0.0150419 2.61393 135 108 79
0.570948 0.0158028 2.61532 132 107 77
0.611367 0.0167236 2.63894 129 103 78
0.652631 0.0176651 2.6636 125 99 84
0.688755 0.0184393 2.66502 125 101 77
0.724879 0.0192135 2.66644 125 103 79
0.761003 0.0199877 2.66786 133 98 79
0.803858 0.0209633 2.69258 121 95 70
0.8403 0.0217442 2.69401 117 100 80
0.876743 0.0225252 2.69544 121 93 72
0.913185 0.0233062 2.69687 118 94 82
0.949627 0.0240872 2.6983 119 97 83
0.977749 0.0246327 2.67636 129 103 88
0.988707 0.0247011 2.60969 120 97 83
0.999371 0.024773 2.547 122 97 75
1.01757 0.0250635 2.50765 120 101 87
1.02715 0.0251247 2.44993 126 105 84
1.04374 0.0253859 2.41252 122 97 77
1.05217 0.0254323 2.35876 125 103 82
1.06048 0.0254836 2.30801 123 102 85
1.07589 0.0257317 2.27556 127 99 88
1.08308 0.0257667 2.22776 121 97 87
1.10545 0.0262088 2.21362 131 110 89
-1.1581 0.00593595 2.03538 175 160 155
-1.12965 0.00654562 2.0365 160 142 140
-1.11664 0.00728144 2.06504 182 164 162
-1.0878 0.00789941 2.06617 186 168 156
-1.06682 0.00859385 2.08201 170 154 141
-1.04542 0.00929719 2.09786 194 171 163
-1.02361 0.0100094 2.11374 179 164 157
-0.986921 0.0105509 2.10016 167 149 145
-0.971719 0.0113663 2.13079 186 169 162
-0.942054 0.0120021 2.13195 180 164 164
-0.912388 0.0126378 2.13312 179 162 154
-0.889125 0.0133812 2.14905 187 168 162
-0.859252 0.0140214 2.15022 189 164 159
-0.835765 0.0147858 2.16716 188 170 158
-0.811836 0.0155598 2.18411 178 165 159
-0.78152 0.0162094 2.1853 179 162 155
-0.756927 0.0169976 2.20229 184 167 159
-0.726391 0.017652 2.20348 184 165 158
-0.701134 0.0184544 2.22049 155 132 124
-0.67575 0.0192758 2.23851 179 158 155
-0.644757 0.0199401 2.23972 177 159 147
-0.618669 0.0207766 2.25777 174 157 149
-0.58744 0.0214458 2.25899 178 159 152
-0.560646 0.0222975 2.27706 162 145 138
-0.533382 0.0231592 2.29515 174 160 151
-0.501684 0.0238385 2.29639 144 132 116
-0.469985 0.0245179 2.29764 169 151 141
-0.441986 0.0254117 2.31676 170 146 142
-0.413489 0.0263161 2.33589 159 140 136
-0.381293 0.0270061 2.33716 158 144 135
-0.352049 0.0279266 2.35632 146 127 120
-0.319603 0.0286219 2.3576 147 126 123
-0.289749 0.0295718 2.37779 143 122 119
-0.25937 0.0305329 2.398 146 125 124
-0.226399 0.0312395 2.3993 142 118 114
-0.193428 0.0319461 2.40059 145 129 114
-0.161997 0.0329298 2.42084 131 113 101
-0.13004 0.0339247 2.44112 132 109 101
-0.0965439 0.0346426 2.44243 130 108 97
-0.0630474 0.0353605 2.44375 135 114 93
-0.0295508 0.0360783 2.44506 134 115 98
0.0034693 0.0374387 2.4864 140 120 95
0.037519 0.0381685 2.48774 150 125 103
0.0718838 0.0392313 2.50911 151 124 105
0.10621 0.039967 2.51045 138 107 86
0.140536 0.0407026 2.5118 136 110 85
0.174863 0.0414383 2.51315 142 118 92
0.209189 0.0421739 2.5145 145 118 101
0.245298 0.0432905 2.53694 141 115 92
