ply
format ascii 1.0
element vertex 1308
property float x
property float y
property float z
property uchar red
property uchar green
property uchar blue
end_header
-0.735687 0.168012 2.28232 140 123 97
-0.709797 0.169861 2.30145 140 123 97
-0.677854 0.170449 2.30287 147 121 104
-0.651217 0.172311 2.32204 140 122 102
-0.624081 0.174183 2.34122 137 109 108
-0.596715 0.176134 2.36141 141 120 101
-0.564013 0.176737 2.36287 138 115 97
-0.53131 0.177339 2.36433 146 119 102
-0.498607 0.177941 2.36579 141 118 100
-0.469927 0.179917 2.38604 138 115 99
-0.440722 0.181903 2.40631 137 114 98
-0.407494 0.182514 2.40779 137 117 106
-0.3775 0.184515 2.4281 142 114 103
-0.344009 0.185131 2.42959 142 112 101
-0.316222 0.188691 2.47077 137 116 99
-0.282178 0.189318 2.47229 129 106 92
-0.248134 0.189945 2.47381 133 115 91
-0.21409 0.190572 2.47533 135 112 94
-0.181792 0.192691 2.49674 135 110 88
-0.147471 0.193322 2.49827 134 108 91
-0.111957 0.192452 2.47988 132 107 87
-0.0788295 0.194586 2.50133 135 103 88
-0.0445087 0.195218 2.50286 127 110 94
-0.0105693 0.197443 2.52534 126 101 94
0.0240418 0.19808 2.52688 116 96 89
0.0582635 0.195586 2.48747 126 112 103
0.0904882 0.190234 2.41102 141 129 105
0.122042 0.187919 2.37448 162 143 126
0.153564 0.187127 2.35791 160 142 118
0.185756 0.18772 2.35935 162 146 121
0.217947 0.188312 2.36078 157 141 115
0.250138 0.188905 2.36222 141 114 93
0.286262 0.19239 2.40078 149 130 115
0.321247 0.194482 2.42131 150 130 106
0.356758 0.196584 2.44186 145 129 104
0.389986 0.197196 2.44334 150 131 99
0.417074 0.194798 2.40661 147 123 95
0.449777 0.1954 2.40807 119 83 69
0.48248 0.196003 2.40952 127 75 62
0.511324 0.195085 2.39184 132 101 80
0.543764 0.195683 2.39328 141 113 91
0.576204 0.19628 2.39473 102 86 71
0.617938 0.199944 2.43453 97 80 70
0.660723 0.203628 2.47439 59 47 47
0.689041 0.202702 2.45668 83 67 70
0.716835 0.201765 2.43894 87 72 67
0.761196 0.205478 2.47887 78 68 56
0.794687 0.206095 2.48036 85 83 62
0.828178 0.206711 2.48185 81 65 66
0.848697 0.204193 2.44482 81 73 60
0.881663 0.2048 2.44629 101 84 77
0.900605 0.202252 2.40919 94 79 74
0.926154 0.201351 2.39236 80 61 63
0.951205 0.20044 2.3755 104 90 81
0.997926 0.204044 2.41353 96 83 75
1.02273 0.203129 2.39666 99 83 70
1.03915 0.200687 2.36145 118 94 90
1.05547 0.198396 2.32823 123 99 95
1.07086 0.196088 2.29496 122 104 90
1.07859 0.192572 2.24738 119 103 78
1.10078 0.191761 2.23239 121 98 82
-1.21186 0.176357 2.09792 148 125 111
-1.19098 0.178092 2.11382 142 126 103
-1.16969 0.179834 2.12974 142 121 100
-1.14852 0.181665 2.14665 148 121 110
-1.11843 0.182219 2.14799 151 124 115
-1.10486 0.18535 2.18053 147 116 111
-1.07433 0.185912 2.18189 146 124 100
-1.04379 0.186474 2.18325 146 124 110
-1.01326 0.187036 2.18461 148 123 116
-0.997939 0.19029 2.21822 142 121 94
-0.959351 0.18947 2.20298 148 126 112
-0.935962 0.191431 2.22099 145 122 108
-0.904974 0.192001 2.22237 146 131 102
-0.88088 0.193976 2.24041 146 122 110
-0.856316 0.195959 2.25847 142 121 104
-0.831282 0.19795 2.27655 140 119 98
-0.806142 0.200034 2.29563 143 127 104
-0.767896 0.199117 2.27937 142 126 103
-0.748313 0.20272 2.31617 141 118 100
-0.716122 0.203312 2.3176 142 118 94
-0.683931 0.203905 2.31904 144 123 106
-0.65174 0.204498 2.32047 115 96 90
-0.624608 0.206618 2.33964 115 92 86
-0.597247 0.208832 2.35982 132 109 93
-0.569359 0.211057 2.38003 137 116 99
-0.531841 0.210037 2.36274 136 117 102
-0.503428 0.212271 2.38297 136 110 95
-0.47449 0.214514 2.40322 142 113 105
-0.441262 0.215126 2.4047 139 113 98
-0.408033 0.215738 2.40618 139 117 106
-0.378044 0.218001 2.42647 137 110 89
-0.344553 0.218617 2.42797 138 111 100
-0.316775 0.22273 2.46912 131 114 96
-0.282731 0.223357 2.47064 134 114 89
-0.250991 0.225743 2.49201 138 113 93
-0.214643 0.224611 2.47367 133 111 90
-0.182349 0.227006 2.49507 131 110 91
-0.148028 0.227638 2.4966 133 107 92
-0.113708 0.22827 2.49813 132 109 93
-0.0793869 0.228902 2.49966 127 108 91
-0.0457426 0.231412 2.52212 129 106 90
-0.0119035 0.235817 2.56554 113 93 82
0.023384 0.234576 2.54615 108 91 81
0.0580908 0.233324 2.52675 95 84 64
0.0895138 0.221476 2.39044 153 134 117
0.120186 0.217088 2.33693 170 145 123
0.152128 0.217676 2.33835 166 122 113
0.182908 0.216622 2.32176 166 146 119
0.213268 0.21565 2.30615 162 148 119
0.24159 0.21311 2.27348 150 130 105
0.276185 0.216808 2.30895 154 135 120
0.307643 0.217387 2.31036 156 139 113
0.346189 0.22287 2.36496 119 111 92
0.375724 0.221792 2.34832 113 101 79
0.407667 0.22238 2.34974 150 133 103
0.442763 0.224647 2.36927 155 135 111
0.474954 0.22524 2.3707 165 131 106
0.503494 0.224145 2.35401 159 139 112
0.535436 0.224733 2.35544 152 133 103
0.567378 0.225321 2.35686 151 127 99
0.594922 0.224207 2.34013 135 87 87
0.626616 0.224791 2.34154 97 71 72
0.668101 0.228796 2.37931 92 82 70
0.705438 0.231104 2.39894 89 74 67
0.72709 0.228261 2.36398 85 75 66
0.770318 0.232299 2.40183 99 85 76
0.790975 0.229437 2.36683 99 81 67
0.822917 0.230025 2.36825 87 78 61
0.867638 0.23409 2.40617 92 75 68
0.886802 0.231201 2.3711 81 64 57
0.905352 0.228391 2.337 100 85 80
0.930071 0.227316 2.32114 86 79 53
0.954319 0.226231 2.30526 79 65 56
0.985308 0.226802 2.30664 95 81 70
1.00885 0.225704 2.29073 89 76 59
1.02515 0.223123 2.25952 102 86 61
1.05546 0.223681 2.26087 125 98 87
1.0781 0.222657 2.24592 122 96 79
1.10819 0.223211 2.24726 118 98 87
-1.22991 0.208598 2.12563 139 117 96
-1.19146 0.207748 2.11238 139 119 108
-1.17017 0.209698 2.12829 146 127 110
-1.1403 0.210248 2.12962 150 131 117
-1.11892 0.212304 2.14653 149 125 113
-1.09709 0.214368 2.16346 147 129 107
-1.07482 0.21644 2.18041 149 127 113
-1.05211 0.21852 2.19737 140 122 112
-1.02943 0.220703 2.21534 147 124 110
-0.998442 0.221274 2.21672 142 125 109
-0.967454 0.221844 2.2181 145 117 106
-0.936465 0.222415 2.21948 147 120 111
-0.912611 0.22462 2.2375 145 122 106
-0.881387 0.225194 2.23889 143 121 107
-0.863491 0.229056 2.27359 147 122 115
-0.831797 0.229639 2.27501 138 119 102
-0.806661 0.231972 2.29408 144 118 105
-0.774719 0.23256 2.2955 141 118 102
-0.748836 0.234906 2.3146 141 119 98
-0.716645 0.235499 2.31604 141 120 101
-0.678892 0.234324 2.29977 133 113 102
-0.580538 0.212763 2.07979 43 39 38
-0.543829 0.21053 2.0535 26 17 18
-0.60286 0.243411 2.37696 136 115 98
-0.574715 0.245902 2.39716 142 113 99
-0.541486 0.246514 2.39864 137 116 95
-0.508258 0.247126 2.40012 146 119 100
-0.479061 0.249637 2.42037 133 109 99
-0.44557 0.250254 2.42186 136 115 96
-0.412079 0.25087 2.42335 138 112 95
-0.378588 0.251487 2.42485 136 110 97
-0.348235 0.254123 2.44615 139 112 95
-0.317328 0.25677 2.46747 131 112 95
-0.283284 0.257396 2.46899 134 110 98
-0.24924 0.258023 2.4705 139 112 91
-0.217227 0.26069 2.49187 133 105 93
-0.182907 0.261322 2.4934 127 98 92
-0.150138 0.264107 2.51581 121 100 83
-0.115527 0.264744 2.51735 125 103 89
-0.0809159 0.265381 2.51889 124 104 79
-0.0463048 0.266018 2.52044 123 101 88
-0.0124751 0.271004 2.56383 112 96 83
0.0228171 0.269472 2.54446 115 92 86
0.0579087 0.272299 2.56696 93 73 72
0.0881362 0.250315 2.35192 137 122 91
0.118382 0.245366 2.30041 164 109 112
0.148122 0.242382 2.26784 163 90 107
0.178016 0.241166 2.25222 165 136 120
0.210099 0.243523 2.2706 162 140 116
0.239523 0.242299 2.25496 158 132 109
0.268582 0.241172 2.2403 171 151 126
0.297199 0.240037 2.22562 158 140 116
0.323238 0.237192 2.19487 133 114 97
0.360178 0.242858 2.24438 150 133 115
0.393288 0.24513 2.26181 165 144 117
0.427016 0.247516 2.28027 158 137 118
0.454795 0.246262 2.26455 152 133 103
0.485548 0.246828 2.26593 154 135 102
0.516301 0.247394 2.2673 155 138 108
0.547054 0.24796 2.26867 159 130 116
0.577807 0.248527 2.27004 155 100 103
0.604433 0.247355 2.25527 154 106 102
0.634965 0.247917 2.25663 126 109 83
0.679777 0.253936 2.30849 89 75 66
0.70591 0.252651 2.2927 101 89 75
0.747549 0.256949 2.32846 87 79 60
0.779008 0.257528 2.32987 101 83 79
0.793079 0.25249 2.27964 104 87 79
0.829863 0.254933 2.29823 95 81 72
0.867117 0.257385 2.31684 92 81 77
0.89184 0.256074 2.30099 98 78 71
0.916092 0.254754 2.28512 89 71 59
0.940284 0.253538 2.27024 113 95 85
0.957252 0.250526 2.23909 85 70 63
0.980338 0.249289 2.22416 94 73 68
1.00343 0.248156 2.21023 105 89 76
1.02611 0.247016 2.19629 94 77 67
1.05557 0.247558 2.1976 103 87 74
1.1077 0.253296 2.2458 122 95 88
-1.23039 0.238462 2.12418 147 127 100
-1.20052 0.239012 2.12551 144 121 103
-1.17066 0.239562 2.12684 140 121 106
-1.1495 0.241835 2.14373 141 119 105
-1.12789 0.244116 2.16064 150 124 111
-1.10585 0.246405 2.17756 152 132 107
-1.08336 0.248702 2.19451 148 125 109
-1.05261 0.249268 2.19588 144 127 111
-1.02993 0.251687 2.21383 147 123 111
-0.998945 0.252257 2.21521 140 123 105
-0.967957 0.252828 2.2166 140 123 105
-0.936969 0.253398 2.21798 147 124 106
-0.913118 0.255838 2.23598 146 124 103
-0.881894 0.256413 2.23737 139 118 99
-0.857338 0.258866 2.25541 143 121 108
-0.832312 0.261328 2.27347 141 121 96
-0.80718 0.263909 2.29253 144 121 105
-0.775238 0.264497 2.29395 142 120 107
-0.749359 0.267093 2.31304 143 116 99
-0.717168 0.267685 2.31448 139 116 98
-0.684977 0.268278 2.31591 138 118 94
-0.581006 0.241589 2.07839 19 18 16
-0.552175 0.24212 2.07967 15 17 12
-0.603396 0.276371 2.37536 136 115 96
-0.575254 0.279126 2.39554 137 116 85
-0.546587 0.28189 2.41576 133 116 86
-0.513096 0.282507 2.41725 133 108 86
-0.479605 0.283123 2.41874 137 111 98
-0.450086 0.286021 2.43999 138 112 87
-0.412623 0.284356 2.42173 141 112 96
-0.382551 0.287264 2.443 138 113 91
-0.348783 0.287886 2.44451 136 110 95
-0.320747 0.29311 2.48562 133 110 96
-0.286426 0.293742 2.48715 129 106 88
-0.254534 0.296801 2.5095 131 108 92
-0.219923 0.297438 2.51104 129 107 93
-0.185311 0.298075 2.51258 129 108 89
-0.1507 0.298713 2.51413 126 103 87
-0.116089 0.29935 2.51567 124 100 88
-0.0824543 0.302441 2.5381 123 96 89
-0.0468669 0.300624 2.51875 118 95 81
-0.0130467 0.30619 2.56212 111 88 72
0.0221452 0.306838 2.56369 110 89 84
0.0573371 0.307486 2.56526 88 73 54
0.0901957 0.295967 2.46408 61 50 48
0.116631 0.272795 2.26495 127 78 81
0.145154 0.267553 2.21739 158 126 111
0.17245 0.262523 2.17177 169 148 129
0.199772 0.259495 2.14309 157 139 117
0.229018 0.260033 2.14439 144 125 95
0.263017 0.265956 2.19076 149 130 113
0.292885 0.266506 2.19209 175 156 139
0.320754 0.265253 2.17838 165 143 119
0.348208 0.263993 2.16466 175 156 123
0.372833 0.260915 2.13586 161 142 110
0.399251 0.259636 2.12209 154 137 109
0.445243 0.271194 2.21482 158 134 106
0.475332 0.271748 2.21617 158 134 108
0.505422 0.272302 2.21751 149 127 103
0.535511 0.272856 2.21885 143 125 103
0.561698 0.271455 2.20407 154 137 107
0.587701 0.270168 2.19028 159 136 118
0.613288 0.268873 2.17647 153 122 102
0.63418 0.265727 2.14751 119 109 84
0.667706 0.26811 2.16395 98 90 71
0.701648 0.2705 2.18041 80 62 50
0.756597 0.280693 2.26059 90 76 65
0.770775 0.275304 2.21339 98 84 71
0.800644 0.275854 2.21472 95 80 61
0.830512 0.276404 2.21605 97 80 62
0.866495 0.278949 2.2336 99 79 78
0.878368 0.273753 2.18829 89 78 60
0.901674 0.272417 2.17438 98 82 67
0.93092 0.272955 2.17569 86 74 62
0.960166 0.273494 2.17699 89 78 60
0.989411 0.274032 2.17829 103 88 69
1.01168 0.272676 2.16434 85 75 66
1.04072 0.273211 2.16563 82 69 63
1.06237 0.271844 2.15165 93 78 59
-1.23088 0.268326 2.12273 142 116 101
-1.21016 0.270812 2.13958 137 125 103
-1.18007 0.271366 2.14093 140 119 98
-1.14998 0.27192 2.14227 145 124 123
-1.12839 0.274422 2.15916 145 121 111
-1.1234 0.280959 2.20818 142 119 103
-1.09241 0.281529 2.20957 147 125 114
-1.06142 0.2821 2.21095 154 121 106
-1.03044 0.28267 2.21233 144 121 103
-0.999449 0.283241 2.21371 138 118 107
-0.976072 0.285907 2.23168 149 119 111
-0.944848 0.286482 2.23307 142 124 104
-0.920766 0.289162 2.25108 133 120 101
-0.882402 0.287632 2.23586 134 112 99
-0.86452 0.292433 2.27052 142 123 108
-0.839641 0.295259 2.28955 140 119 100
-0.814264 0.298094 2.30861 136 118 96
-0.782073 0.298686 2.31004 138 116 103
-0.749882 0.299279 2.31148 139 118 89
-0.723509 0.302132 2.33058 130 112 88
-0.685499 0.300464 2.31435 134 115 98
-0.577336 0.268651 2.06323 24 18 20
-0.552643 0.270947 2.07827 18 16 19
-0.609022 0.311738 2.39245 125 105 81
-0.575794 0.312349 2.39393 130 108 87
-0.547131 0.315376 2.41413 134 108 93
-0.51364 0.315993 2.41562 137 113 87
-0.480149 0.316609 2.41712 129 108 87
-0.446658 0.317226 2.41861 129 107 83
-0.416867 0.320405 2.43986 132 111 90
-0.383099 0.321027 2.44136 132 106 91
-0.349332 0.321648 2.44287 130 108 87
-0.321304 0.327426 2.48395 124 105 91
-0.286984 0.328058 2.48548 126 104 90
-0.255096 0.331407 2.50782 120 103 85
-0.220485 0.332044 2.50936 127 99 98
-0.185874 0.332681 2.5109 127 105 91
-0.152824 0.336052 2.53329 119 100 85
-0.117923 0.336695 2.53485 122 97 92
-0.0830212 0.337337 2.5364 113 94 77
-0.0481197 0.33798 2.53796 114 93 88
-0.0136183 0.341377 2.56041 118 92 79
0.0215736 0.342025 2.56198 100 82 80
0.0569547 0.34557 2.58546 98 78 69
0.0891987 0.327091 2.4425 44 35 28
0.118629 0.312901 2.33227 93 64 68
0.14386 0.29574 2.19995 153 141 119
0.17101 0.290189 2.15535 164 151 117
0.198131 0.286742 2.12668 162 144 120
0.224514 0.283413 2.09898 155 135 108
0.253151 0.28394 2.10025 135 117 95
0.281789 0.284467 2.10153 110 91 77
0.312289 0.286871 2.11683 155 132 118
0.343323 0.289415 2.13315 157 132 102
0.369951 0.287932 2.1194 179 158 131
0.396339 0.286576 2.10664 167 151 125
0.419702 0.283323 2.07979 165 140 118
0.445122 0.28195 2.06698 137 99 80
0.473178 0.282466 2.06823 121 82 67
0.521002 0.294659 2.15601 70 26 23
0.550248 0.295197 2.15732 119 80 63
0.579494 0.295736 2.15862 99 27 30
0.6006 0.292178 2.12969 127 42 37
0.625439 0.290794 2.11685 150 131 101
0.645705 0.287484 2.08987 145 128 108
0.673955 0.288004 2.09113 134 116 94
0.702205 0.288524 2.09239 86 78 65
0.754969 0.298966 2.16644 103 92 88
0.778901 0.297434 2.15257 93 84 77
0.79211 0.292021 2.11034 92 79 73
0.825901 0.294485 2.12579 87 70 63
0.866016 0.299038 2.15646 93 85 64
0.877441 0.293592 2.11414 103 86 79
0.905885 0.294116 2.11541 102 85 78
0.928208 0.292685 2.10246 108 91 83
0.956458 0.293205 2.10372 92 73 58
0.984708 0.293725 2.10498 103 82 63
1.01296 0.294245 2.10624 94 80 67
1.04121 0.294765 2.1075 118 102 87
-1.23136 0.29819 2.12128 139 122 102
-1.20149 0.29874 2.12261 136 114 100
-1.1895 0.303612 2.15499 149 128 101
-1.15047 0.302005 2.14081 145 122 91
-1.13737 0.306898 2.17324 138 117 98
-1.11511 0.309633 2.19015 134 119 98
-1.09292 0.312513 2.20806 144 120 118
-1.06193 0.313084 2.20944 143 121 108
-1.03903 0.315976 2.22738 135 116 102
-1.0078 0.316551 2.22877 140 119 100
-0.976579 0.317126 2.23017 139 121 101
-0.952735 0.320036 2.24815 130 108 97
-0.921277 0.320615 2.24955 126 103 97
-0.896728 0.323539 2.26756 129 110 95
-0.872102 0.326609 2.28658 129 112 96
-0.84016 0.327197 2.288 122 104 80
-0.814787 0.33028 2.30704 119 102 86
-0.782596 0.330873 2.30848 124 102 88
-0.756477 0.33397 2.32756 106 92 81
-0.724036 0.334568 2.329 104 87 77
-0.691596 0.335165 2.33045 94 81 65
-0.590818 0.303441 2.10505 17 16 21
-0.553112 0.299774 2.07687 20 16 17
-0.614658 0.347629 2.40952 86 72 63
-0.576334 0.345573 2.39232 80 67 58
-0.547675 0.348862 2.4125 77 66 60
-0.514184 0.349479 2.414 71 56 49
-0.476649 0.347408 2.39676 70 61 54
-0.447202 0.350712 2.41698 65 57 46
-0.413711 0.351329 2.41848 68 55 46
-0.387076 0.357634 2.45947 124 100 88
-0.353031 0.35826 2.46099 123 104 87
-0.32488 0.364739 2.50305 121 103 91
-0.290269 0.365376 2.50459 122 100 89
-0.258096 0.369021 2.52693 125 107 87
-0.223194 0.369663 2.52848 119 101 81
-0.188293 0.370306 2.53004 120 100 93
-0.153391 0.370948 2.53159 116 94 80
-0.119766 0.37462 2.55399 113 89 79
-0.083588 0.372233 2.53471 120 95 88
-0.0486865 0.372876 2.53626 114 94 83
-0.0146141 0.379754 2.58058 105 85 78
0.020882 0.380408 2.58216 104 86 76
0.0563781 0.381061 2.58374 85 65 56
0.0882328 0.357807 2.42194 44 36 34
0.118759 0.347467 2.34866 39 28 24
0.141826 0.32129 2.16757 153 138 119
0.168621 0.315241 2.12398 164 147 129
0.194326 0.309464 2.08233 167 146 125
0.220212 0.30587 2.05562 161 143 123
0.248269 0.306387 2.05687 169 153 127
0.27466 0.304838 2.04411 146 130 107
0.302523 0.305351 2.04535 129 110 93
0.330386 0.305863 2.04659 155 133 110
0.358249 0.306376 2.04784 155 134 107
0.388553 0.308969 2.06312 170 150 126
0.413975 0.307402 2.05032 169 156 114
0.43376 0.301952 2.01139 163 141 120
0.46107 0.302455 2.01261 165 147 109
0.48838 0.302958 2.01383 113 89 79
0.518855 0.305408 2.02813 135 85 76
0.549946 0.308016 2.04344 125 83 67
0.58495 0.312585 2.07188 140 117 99
0.609017 0.310993 2.05902 147 134 117
0.632996 0.309545 2.04715 160 133 104
0.65224 0.305974 2.02113 147 133 107
0.67955 0.306477 2.02235 145 130 97
0.70686 0.30698 2.02357 112 95 79
0.763204 0.319937 2.10769 91 78 70
0.776196 0.314071 2.06647 113 99 88
0.799097 0.312603 2.05455 113 90 84
0.842998 0.319371 2.09731 101 81 80
0.859785 0.31561 2.0702 108 89 85
0.882147 0.314132 2.05825 107 93 80
0.90983 0.314641 2.05949 88 73 66
0.937514 0.315151 2.06072 125 108 98
0.958691 0.313506 2.04773 97 79 77
0.986181 0.314012 2.04896 88 78 53
1.02056 0.31668 2.06443 93 81 65
-1.24123 0.330428 2.13532 137 123 94
-1.21114 0.330982 2.13666 134 119 96
-1.18999 0.333918 2.15352 131 116 95
-1.15968 0.334476 2.15487 141 116 111
-1.13787 0.337425 2.17175 136 121 98
-1.12441 0.342926 2.20517 135 117 103
-1.09342 0.343497 2.20656 142 121 102
-1.07076 0.34662 2.22447 134 113 94
-1.03953 0.347195 2.22587 134 115 100
-1.01616 0.350332 2.24382 130 114 98
-0.977086 0.348345 2.22865 89 73 60
-0.938479 0.346349 2.21346 80 63 55
-0.921788 0.352069 2.24802 70 54 54
-0.89033 0.352648 2.24943 64 51 43
-0.858871 0.353227 2.25083 63 49 36
-0.827413 0.353807 2.25223 65 49 52
-0.771486 0.34417 2.18809 63 52 48
-0.735332 0.342289 2.17379 60 50 40
-0.705021 0.342847 2.17514 62 50 38
-0.67989 0.345856 2.19217 64 51 43
-0.654317 0.348874 2.20922 57 50 42
-0.582411 0.32807 2.07419 28 23 19
-0.55358 0.328601 2.07547 22 16 16
-0.571183 0.355817 2.24675 40 34 36
-0.531304 0.351139 2.21471 50 41 32
-0.500551 0.351705 2.21608 59 48 46
-0.469798 0.352271 2.21745 66 48 48
-0.442667 0.355477 2.23557 61 46 49
-0.411679 0.356048 2.23695 64 51 43
-0.377538 0.35397 2.22156 60 49 45
-0.387629 0.391673 2.45782 117 101 75
-0.35674 0.395425 2.47909 116 100 77
-0.325442 0.399345 2.50137 122 102 91
-0.290831 0.399982 2.50291 123 98 93
-0.258662 0.403917 2.52523 122 99 81
-0.223761 0.40456 2.52679 116 98 84
-0.188859 0.405202 2.52834 113 95 75
-0.153958 0.405845 2.5299 116 92 88
-0.120337 0.409807 2.55228 107 88 74
-0.0851453 0.410455 2.55385 105 89 74
-0.0499534 0.411103 2.55542 107 89 77
-0.0151906 0.415245 2.57885 101 74 67
0.0203055 0.415898 2.58043 94 81 65
0.0558016 0.416552 2.58202 85 67 63
0.0876931 0.391031 2.42033 47 39 37
0.117591 0.376776 2.32917 45 35 36
0.141344 0.350946 2.16613 103 91 77
0.16542 0.33738 2.07968 151 134 114
0.190618 0.331158 2.03903 156 138 116
0.216021 0.327327 2.01331 156 137 120
0.242146 0.325738 2.00154 159 136 104
0.267912 0.324143 1.98976 166 151 122
0.295042 0.324643 1.99097 161 143 121
0.324076 0.327247 2.0052 161 145 119
0.349303 0.325642 1.99339 162 142 117
0.376433 0.326141 1.9946 152 136 111
0.406006 0.328755 2.00885 164 144 119
0.430694 0.32714 1.99702 144 129 90
0.455237 0.325682 1.98618 172 150 127
0.479219 0.324054 1.97432 178 151 132
0.503085 0.322583 1.96345 154 130 106
0.523277 0.318974 1.93949 131 111 102
0.552801 0.321428 1.95274 136 118 94
0.586357 0.326026 1.9791 148 127 98
0.620605 0.330636 2.00549 146 132 105
0.643987 0.329157 1.9946 103 36 30
0.658556 0.323375 1.95745 95 30 28
0.680915 0.321877 1.94651 126 76 69
0.698696 0.318383 1.92344 109 72 64
0.729049 0.320852 1.93672 108 90 76
0.773849 0.329478 1.98746 95 82 65
0.79589 0.327973 1.9765 94 80 71
0.837647 0.334632 2.01516 110 94 81
0.859702 0.333128 2.00421 101 85 85
0.886666 0.333624 2.00541 108 95 79
0.907772 0.331943 1.99343 89 80 63
0.934557 0.332436 1.99462 102 88 79
0.967559 0.335113 2.00902 97 78 64
0.988126 0.333423 1.99701 85 68 58
-1.24172 0.360513 2.13386 141 113 102
-1.2208 0.363666 2.15069 138 120 96
-1.19048 0.364224 2.15205 137 118 101
-1.1689 0.36739 2.16891 136 118 104
-1.13836 0.367952 2.17027 137 118 104
-1.12491 0.37391 2.20367 132 103 105
-1.09392 0.37448 2.20505 135 117 93
-1.07126 0.377839 2.22296 143 121 108
-1.04004 0.378414 2.22435 130 111 94
-1.00882 0.378989 2.22574 91 80 62
-0.913473 0.356001 2.08787 72 62 50
-0.897264 0.36149 2.1184 62 56 44
-0.861292 0.359557 2.1051 65 55 53
-0.831839 0.360099 2.10641 64 58 44
-0.808282 0.363129 2.12237 56 43 52
-0.772932 0.361184 2.10904 63 50 42
-0.74896 0.364221 2.12502 55 44 40
-0.719299 0.364767 2.12634 62 53 46
-0.689639 0.365313 2.12766 62 51 47
-0.659978 0.365859 2.12898 63 56 48
-0.630317 0.366405 2.13031 52 48 37
-0.582879 0.356897 2.07279 35 30 26
-0.558285 0.359945 2.08879 27 19 17
-0.541335 0.368043 2.13427 48 41 35
-0.515496 0.371114 2.15033 61 51 49
-0.482013 0.369135 2.13692 61 51 42
-0.45576 0.372214 2.153 68 53 46
-0.425892 0.372764 2.15433 65 52 44
-0.396024 0.373314 2.15566 57 48 43
-0.366155 0.373864 2.15699 68 55 47
-0.391618 0.429109 2.47589 99 82 66
-0.357298 0.429741 2.47742 107 88 74
-0.326005 0.433951 2.49969 119 98 77
-0.294131 0.438171 2.52198 116 97 80
-0.259229 0.438813 2.52354 109 88 71
-0.224328 0.439456 2.52509 120 96 84
-0.191293 0.443698 2.54744 117 100 80
-0.156101 0.444346 2.54901 116 100 85
-0.120909 0.444994 2.55058 115 93 82
-0.0857169 0.445641 2.55214 110 94 78
-0.050525 0.446289 2.55371 107 89 77
-0.0157672 0.450736 2.57713 101 81 70
0.0197289 0.451389 2.57871 97 83 70
0.0550506 0.448233 2.55842 85 67 63
0.0871534 0.424254 2.41872 50 40 39
0.117713 0.41184 2.34554 50 36 36
0.145606 0.3973 2.26031 44 34 25
0.165843 0.368258 2.09225 138 121 103
0.190165 0.359017 2.03768 140 124 99
0.215574 0.354813 2.01197 133 119 92
0.240341 0.35077 1.98724 162 144 120
0.263085 0.344787 1.95148 155 139 123
0.284806 0.338785 1.91567 181 163 127
0.309158 0.337157 1.90483 157 135 114
0.333339 0.335699 1.89498 168 146 123
0.365213 0.342341 1.93118 166 145 124
0.391486 0.342825 1.93235 152 133 103
0.417759 0.343309 1.93353 152 135 109
0.444032 0.343792 1.9347 173 150 119
0.476034 0.348707 1.96097 163 114 107
0.493662 0.34263 1.92498 174 97 115
0.516687 0.340977 1.91408 175 145 121
0.536403 0.337361 1.8921 168 144 118
0.558896 0.335872 1.88217 153 134 101
0.587649 0.338304 1.89439 152 132 99
0.613272 0.338776 1.89553 134 96 75
0.646392 0.343365 1.91986 126 48 44
0.668595 0.341871 1.90992 157 99 98
0.686251 0.338216 1.88785 140 81 75
0.703638 0.33473 1.86676 136 93 84
0.728805 0.335193 1.86788 126 110 85
0.76701 0.341606 1.90238 106 93 76
0.806946 0.348397 1.93895 92 78 67
0.833053 0.348878 1.94011 105 90 67
0.85916 0.349359 1.94128 97 78 63
0.890671 0.352015 1.95461 104 93 75
0.905803 0.348141 1.93143 98 86 64
0.926485 0.346619 1.92142 95 82 48
0.96949 0.353466 1.95812 114 99 76
-1.2516 0.393415 2.14787 126 110 94
-1.22129 0.393973 2.14922 135 109 94
-1.19992 0.397356 2.16607 136 109 98
-1.16939 0.397918 2.16743 131 113 99
-1.14737 0.401313 2.1843 130 106 102
-1.13422 0.407908 2.21866 123 107 92
-1.10299 0.408483 2.22005 132 103 97
-1.07177 0.409058 2.22144 124 101 93
-1.04864 0.41266 2.23936 131 115 99
-1.02505 0.416271 2.2573 62 55 45
-0.887928 0.374884 2.03 61 51 39
-0.859484 0.375408 2.03127 73 60 52
-0.83104 0.375932 2.03253 69 55 54
-0.802596 0.376455 2.0338 69 56 48
-0.779659 0.379493 2.04873 69 56 47
-0.751021 0.380021 2.05001 77 67 65
-0.701907 0.370461 1.99657 50 39 33
-0.669471 0.368629 1.98511 59 45 42
-0.669841 0.384131 2.06753 75 61 52
-0.636471 0.38213 2.05511 71 58 50
-0.607834 0.382657 2.05639 61 50 46
-0.579196 0.383184 2.05767 52 47 43
-0.554516 0.386254 2.07267 47 36 34
-0.525685 0.386785 2.07396 54 46 44
-0.493284 0.384766 2.0615 75 65 64
-0.464646 0.385293 2.06277 66 58 55
-0.436009 0.38582 2.06405 65 49 49
-0.416767 0.394396 2.10861 59 46 38
-0.384526 0.392187 2.09515 55 43 43
-0.352699 0.38997 2.08167 62 49 43
-0.395789 0.467282 2.49492 79 69 57
-0.361178 0.467919 2.49646 97 80 64
-0.329599 0.472425 2.51873 93 75 65
-0.294698 0.473067 2.52029 107 89 75
-0.259796 0.47371 2.52184 114 95 81
-0.224895 0.474352 2.5234 108 91 81
-0.191864 0.478884 2.54573 110 92 82
-0.156672 0.479532 2.5473 109 91 79
-0.12148 0.48018 2.54887 115 93 79
-0.0862885 0.480828 2.55044 104 88 73
-0.0510966 0.481476 2.552 104 85 79
-0.0167827 0.490329 2.59724 103 86 68
0.0190176 0.490988 2.59883 102 81 80
0.0546485 0.487534 2.57857 53 35 35
0.0862046 0.45392 2.39821 45 34 30
0.116554 0.440651 2.32607 48 39 42
0.145102 0.428284 2.25881 44 35 36
0.169096 0.407985 2.14963 58 48 38
0.189713 0.386876 2.03632 147 130 114
0.21277 0.377397 1.98471 149 131 107
0.236034 0.370911 1.949 168 145 127
0.259695 0.366676 1.92522 163 136 117
0.281342 0.360534 1.89142 162 140 127
0.305379 0.358734 1.88058 172 147 125
0.325729 0.352943 1.84871 163 138 116
0.350895 0.353406 1.84983 159 120 113
0.378124 0.355963 1.86197 172 127 121
0.401229 0.354333 1.85207 143 99 88
0.428762 0.356895 1.86423 156 102 102
0.459118 0.361565 1.88743 177 105 117
0.484741 0.362037 1.88857 169 93 105
0.507541 0.360401 1.87866 171 115 116
0.533012 0.36087 1.8798 172 152 128
0.552229 0.357113 1.8588 170 151 121
0.570838 0.353345 1.83778 166 147 117
0.5957 0.353802 1.83889 165 145 120
0.620563 0.35426 1.84 152 121 101
0.652896 0.358966 1.86329 159 111 109
0.678063 0.359429 1.86441 142 127 106
0.69515 0.355633 1.84332 161 142 109
0.715821 0.353958 1.83332 148 133 94
0.736188 0.352278 1.8233 128 118 91
0.769738 0.357006 1.84665 100 93 74
0.803896 0.361746 1.87002 113 98 79
0.838663 0.366497 1.89343 104 91 75
0.864134 0.366966 1.89456 102 83 77
0.889605 0.367435 1.8957 110 91 74
0.915075 0.367904 1.89683 112 85 90
0.935138 0.366218 1.8868 106 90 64
-1.26148 0.426759 2.16186 125 101 89
-1.23095 0.427321 2.16322 130 112 88
-1.20937 0.430929 2.18007 132 114 92
-1.17862 0.431495 2.18144 129 104 97
-1.14787 0.432061 2.18281 122 115 87
-1.13472 0.439127 2.21714 139 110 104
-1.1035 0.439702 2.21853 115 108 82
-1.07228 0.440276 2.21993 134 108 91
-1.04105 0.440851 2.22132 101 86 81
-0.869539 0.395242 1.98777 74 61 53
-0.82993 0.390553 1.96273 67 58 41
-0.808337 0.39376 1.97759 77 63 60
-0.785949 0.396781 1.99149 62 55 39
-0.758086 0.397294 1.99274 65 59 45
-0.725287 0.395289 1.9813 58 50 48
-0.697604 0.395799 1.98253 20 21 15
-0.660415 0.391065 1.95739 28 28 30
-0.642237 0.396818 1.985 64 55 48
-0.618771 0.399859 1.99895 74 61 53
-0.58687 0.397837 1.98747 62 56 40
-0.563044 0.400885 2.00143 61 50 54
-0.531503 0.398856 1.98994 202 192 190
-0.507318 0.401911 2.00392 186 174 176
-0.479455 0.402424 2.00516 119 102 112
-0.448453 0.400385 1.99364 96 84 94
-0.426915 0.4062 2.0214 94 84 85
-0.395866 0.403963 2.00889 91 82 77
-0.365403 0.401914 1.99734 50 40 38
-0.340139 0.404988 2.01137 64 50 47
-0.314688 0.408267 2.0264 66 51 46
-0.36174 0.502525 2.49478 91 70 65
-0.330166 0.507321 2.51704 99 81 67
-0.295265 0.507964 2.51859 102 84 72
-0.260363 0.508606 2.52015 108 83 76
-0.227628 0.513423 2.54245 106 85 68
-0.192436 0.514071 2.54402 108 91 75
-0.157244 0.514719 2.54559 105 83 69
-0.123409 0.519757 2.56893 115 90 86
-0.0868601 0.516015 2.54873 103 83 76
-0.0524164 0.521064 2.5721 99 79 72
-0.0173642 0.526124 2.5955 99 81 67
0.0184361 0.526784 2.59709 101 84 76
0.0542364 0.527443 2.59869 59 51 49
0.086074 0.490701 2.41549 42 33 34
0.116667 0.476213 2.34241 44 35 28
0.144599 0.459267 2.2573 47 31 31
0.169559 0.440461 2.16313 47 36 30
0.191405 0.420393 2.06286 88 78 69
0.21233 0.404523 1.98339 148 132 119
0.234246 0.394892 1.93474 161 125 111
0.255134 0.385845 1.88902 184 157 128
0.27934 0.383882 1.87819 175 159 126
0.301757 0.37988 1.85735 161 144 118
0.32532 0.378106 1.84748 169 147 126
0.344764 0.371841 1.8156 178 157 140
0.367415 0.370051 1.80569 175 144 126
0.389962 0.368459 1.79677 174 132 120
0.416531 0.370955 1.80788 174 131 125
0.44109 0.371407 1.80897 174 139 117
0.465648 0.371859 1.81007 144 92 78
0.495847 0.37683 1.83325 125 50 47
0.517737 0.375026 1.82331 143 90 76
0.542447 0.375481 1.82441 167 144 126
0.567157 0.375935 1.82551 179 157 134
0.585322 0.372056 1.80548 176 150 125
0.602906 0.368165 1.78542 162 147 118
0.627036 0.368609 1.78649 147 133 104
0.651166 0.369053 1.78757 167 136 115
0.683002 0.373854 1.80983 144 130 95
0.703614 0.372226 1.80082 163 141 117
0.715661 0.366227 1.77059 168 147 128
0.73543 0.364584 1.76155 146 121 99
0.763367 0.367105 1.77272 128 106 92
0.805102 0.376102 1.81527 100 77 71
0.838972 0.38094 1.83763 100 85 66
0.863682 0.381395 1.83873 111 93 91
0.883139 0.379545 1.82868 105 88 81
0.907697 0.379997 1.82977 100 86 85
-1.26198 0.457286 2.16038 129 108 89
-1.24062 0.461112 2.1772 126 111 90
-1.20987 0.461678 2.17857 117 101 88
-1.17912 0.462244 2.17994 127 114 98
-1.14837 0.46281 2.18132 123 103 92
-1.13523 0.470345 2.21563 130 105 85
-1.11258 0.474409 2.2335 131 105 90
-1.08946 0.478482 2.25139 123 105 95
-0.861749 0.406521 1.90941 72 56 56
-0.840802 0.409695 1.92324 74 64 55
-0.797299 0.402344 1.88749 72 58 49
-0.781395 0.408 1.913 78 59 53
-0.75461 0.408493 1.91419 73 64 47
-0.732945 0.411681 1.92805 74 65 60
-0.71054 0.414667 1.94095 77 64 58
-0.674257 0.409972 1.91777 52 43 34
-0.652052 0.41317 1.93166 64 44 43
-0.625087 0.413666 1.93286 74 63 61
-0.602018 0.416665 1.94579 68 55 62
-0.574888 0.417165 1.947 61 52 37
-0.544195 0.415156 1.93647 64 48 51
-0.51723 0.415652 1.93767 59 47 47
-0.496998 0.421387 1.96337 57 50 44
-0.469688 0.42189 1.96458 64 53 47
-0.439237 0.419662 1.95305 58 49 50
-0.415068 0.422896 1.96702 58 51 41
-0.387758 0.423399 1.96824 52 40 40
-0.363051 0.426642 1.98223 53 40 49
-0.333138 0.424404 1.97067 50 36 36
-0.308071 0.427654 1.98468 45 38 22
-0.362302 0.537131 2.4931 86 72 63
-0.330733 0.542217 2.51534 89 72 64
-0.295832 0.54286 2.5169 92 73 69
-0.263391 0.547962 2.53917 101 81 70
-0.228199 0.54861 2.54074 97 79 69
-0.193007 0.549258 2.54231 103 84 78
-0.157816 0.549906 2.54388 99 77 66
-0.125347 0.559942 2.58897 106 88 76
-0.088489 0.555901 2.56879 104 90 79
-0.053746 0.56126 2.59216 101 83 73
-0.018415 0.566845 2.61655 97 78 63
0.0177034 0.56751 2.61816 96 72 68
0.0539885 0.573111 2.6426 79 66 57
0.0876423 0.545415 2.51316 31 21 22
0.116773 0.512272 2.35873 38 31 25
0.143267 0.486589 2.2389 52 34 34
0.169078 0.470118 2.16169 43 31 31
0.193085 0.454685 2.08936 48 36 36
0.210806 0.429055 1.97012 106 69 76
0.23132 0.416133 1.90954 112 30 34
0.252004 0.406646 1.86483 173 151 137
0.273129 0.399956 1.83304 174 153 134
0.294942 0.395638 1.81219 178 160 140
0.319652 0.396093 1.81329 176 154 143
0.340726 0.391976 1.7934 161 149 123
0.361219 0.387849 1.77349 183 162 133
0.38334 0.386111 1.76455 178 158 123
0.405184 0.384368 1.75561 165 143 122
0.424696 0.380651 1.73763 163 148 127
0.457737 0.389626 1.77779 164 140 116
0.476743 0.385685 1.7588 174 160 125
0.500596 0.386124 1.75986 149 119 91
0.52445 0.386563 1.76093 163 138 116
0.548303 0.387003 1.76199 160 144 110
0.572156 0.387442 1.76305 164 145 113
0.592756 0.385676 1.75405 158 144 109
0.613418 0.384126 1.74605 156 142 107
0.640185 0.386549 1.75617 165 144 125
0.660599 0.384994 1.74815 147 122 100
0.680383 0.383213 1.73911 144 128 112
0.71133 0.387859 1.75934 149 135 100
0.723205 0.381856 1.7311 156 147 108
0.74272 0.380285 1.72305 156 133 115
0.761986 0.378709 1.71498 138 112 95
0.793146 0.383144 1.73422 103 74 66
0.834539 0.392272 1.77475 108 91 75
0.86794 0.397177 1.79608 111 102 87
0.89207 0.397622 1.79715 111 82 86
-1.27188 0.491294 2.17434 124 105 91
-1.24112 0.49186 2.17571 126 103 85
-1.21037 0.492426 2.17708 126 107 90
-1.17962 0.492992 2.17845 123 105 95
-1.15791 0.497274 2.19627 130 112 90
-1.14455 0.505284 2.23057 129 103 90
-1.11309 0.505863 2.23197 122 104 94
-1.07329 0.502714 2.21689 109 95 86
-0.859875 0.419415 1.84775 87 78 69
-0.833933 0.419892 1.84891 71 63 44
-0.818775 0.425652 1.87337 70 59 57
-0.787277 0.423491 1.86288 80 69 49
-0.76117 0.423972 1.86404 66 63 56
-0.739957 0.427103 1.87689 66 50 63
-0.718411 0.430239 1.88974 57 52 33
-0.691973 0.430726 1.89092 51 39 41
-0.665534 0.431213 1.8921 58 53 50
-0.643677 0.434584 1.90596 57 48 43
-0.617059 0.435074 1.90715 50 41 42
-0.59044 0.435564 1.90833 51 38 32
-0.563821 0.436054 1.90952 39 26 35
-0.540769 0.439219 1.92244 54 43 39
-0.510584 0.437034 1.91189 45 34 30
-0.490704 0.443109 1.93756 48 37 31
-0.470132 0.449196 1.96326 48 34 34
-0.442822 0.449699 1.96448 46 38 35
-0.412547 0.447288 1.95294 43 34 35
-0.388202 0.450704 1.96691 44 33 29
-0.363497 0.454128 1.9809 46 39 31
-0.336007 0.454634 1.98212 43 32 40
-0.306272 0.452213 1.97056 42 34 23
-0.362864 0.571737 2.49142 82 62 55
-0.334347 0.581853 2.53433 88 70 60
-0.296398 0.577756 2.5152 92 74 64
-0.263963 0.583149 2.53747 101 82 68
-0.228771 0.583797 2.53903 98 78 67
-0.195554 0.589432 2.56232 101 82 67
-0.160058 0.590085 2.5639 104 82 68
-0.125928 0.595737 2.58723 98 81 73
-0.0901278 0.596396 2.58883 101 81 70
-0.0543275 0.597055 2.59043 105 85 74
-0.0190016 0.602958 2.6148 87 79 60
0.0169603 0.608872 2.6392 94 81 73
0.0533967 0.609542 2.64083 89 73 60
0.0875181 0.584824 2.53232 29 23 23
0.118882 0.56211 2.43261 32 23 28
0.141991 0.51367 2.22151 45 34 30
0.169531 0.503216 2.17516 43 34 29
0.19262 0.483319 2.08797 48 40 37
0.215048 0.467976 2.02057 50 31 25
0.230896 0.442236 1.90827 106 30 30
0.249002 0.427042 1.84167 154 140 113
0.26983 0.41989 1.80989 168 150 126
0.288438 0.410642 1.76909 176 163 131
0.310976 0.408773 1.76018 176 159 133
0.331508 0.404584 1.74127 148 135 119
0.353542 0.402935 1.73333 165 142 124
0.375126 0.401049 1.72438 170 127 118
0.396434 0.399158 1.71542 134 63 57
0.417693 0.397494 1.70745 156 107 92
0.440882 0.397921 1.70848 164 148 125
0.459209 0.39392 1.69046 170 146 122
0.487261 0.398775 1.71055 169 149 125
0.507898 0.3971 1.70255 103 91 75
0.533639 0.399629 1.71261 156 134 110
0.554027 0.397949 1.7046 157 136 115
0.577092 0.398373 1.70563 162 145 119
0.600157 0.398798 1.70666 164 151 119
0.623222 0.399223 1.70769 159 137 116
0.642621 0.397296 1.69864 153 131 107
0.662125 0.3956 1.69059 151 134 108
0.684927 0.39602 1.6916 149 132 102
0.715481 0.400921 1.7118 150 130 95
0.730531 0.39686 1.69364 147 126 97
0.749412 0.395152 1.68556 165 146 116
0.77209 0.39557 1.68657 147 119 105
0.790597 0.393855 1.67847 129 113 88
0.809333 0.392374 1.67138 111 97 88
0.844542 0.398959 1.69872 118 98 91
-1.27238 0.522043 2.17284 134 109 104
-1.25138 0.526546 2.19062 129 102 107
-1.21087 0.523175 2.17559 124 106 96
-1.19869 0.531633 2.20981 120 103 87
-1.15842 0.528258 2.19477 127 107 100
-1.14506 0.536737 2.22904 125 105 96
-1.12219 0.541276 2.2469 120 106 93
-0.860296 0.445352 1.84649 35 27 25
-0.829258 0.443259 1.83698 40 30 29
-0.808414 0.446307 1.8488 38 33 13
-0.782473 0.446785 1.84996 45 37 34
-0.766656 0.452888 1.87444 48 33 38
-0.740383 0.453372 1.87561 41 35 23
-0.718841 0.456674 1.88846 45 37 35
-0.692402 0.457161 1.88964 43 34 25
-0.670728 0.460708 1.90348 33 24 25
-0.64411 0.461199 1.90467 37 27 26
-0.617491 0.461689 1.90585 42 35 29
-0.590872 0.462179 1.90704 36 31 25
-0.567989 0.465506 1.91995 36 34 19
-0.541204 0.465999 1.92114 29 26 21
-0.51442 0.466492 1.92234 33 24 27
-0.497886 0.475999 1.96072 36 24 28
-0.470576 0.476502 1.96193 37 27 28
-0.443266 0.477005 1.96315 37 28 19
-0.418923 0.480601 1.97711 39 25 25
-0.391433 0.481107 1.97834 38 26 26
-0.363944 0.481613 1.97956 44 36 33
-0.336454 0.48212 1.98079 44 31 38
-0.308964 0.482626 1.98202 44 36 34
-0.363427 0.606343 2.48974 80 67 58
-0.334918 0.61704 2.53262 84 64 55
-0.299726 0.617688 2.53419 85 67 55
-0.264534 0.618335 2.53576 84 68 55
-0.229343 0.618983 2.53733 94 74 63
-0.194151 0.619631 2.53889 95 69 72
-0.160634 0.625576 2.56218 98 80 70
-0.125138 0.62623 2.56376 99 81 69
-0.0907093 0.632191 2.58709 98 79 72
-0.054909 0.63285 2.58869 100 77 71
-0.0200679 0.644632 2.63581 98 79 62
0.0163685 0.645303 2.63743 95 72 64
0.0528049 0.645974 2.63906 87 71 56
0.0869512 0.619721 2.53062 28 24 21
0.118338 0.595597 2.43098 33 32 27
0.146421 0.56899 2.32129 30 24 24
0.169046 0.53308 2.17371 49 35 32
0.192155 0.511952 2.08658 48 38 39
0.215765 0.498825 2.03215 48 36 36
0.236895 0.483472 1.96871 84 56 53
0.248594 0.452205 1.84045 147 129 119
0.267985 0.441906 1.79773 165 147 125
0.286595 0.43232 1.75795 170 152 128
0.305978 0.425653 1.73008 178 163 132
0.326113 0.42118 1.71117 138 105 98
0.346069 0.417189 1.69423 183 99 112
0.36713 0.415155 1.68526 187 116 130
0.388129 0.413362 1.67728 179 122 128
0.408878 0.411564 1.66929 174 119 116
0.429379 0.409762 1.66129 163 116 110
0.451932 0.410177 1.6623 174 159 126
0.469903 0.406391 1.64626 176 155 128
0.489671 0.404575 1.63822 149 133 110
0.509488 0.403003 1.63118 112 94 80
0.536858 0.407624 1.64924 135 122 90
0.5621 0.410268 1.65928 154 132 109
0.587252 0.412668 1.66833 153 136 106
0.603812 0.408856 1.65223 163 140 109
0.629428 0.411507 1.66228 168 145 129
0.654911 0.413914 1.67134 168 148 124
0.670767 0.410089 1.65521 154 98 101
0.693085 0.4105 1.65621 152 121 101
0.715403 0.410911 1.6572 152 124 112
0.737721 0.411322 1.6582 143 128 99
0.755996 0.409478 1.6501 148 129 96
0.770317 0.405625 1.63389 147 133 106
0.796568 0.408288 1.64398 138 113 93
0.810308 0.404424 1.62775 127 103 91
-1.28287 0.556959 2.18773 134 107 96
-1.25188 0.55753 2.18912 117 102 83
-1.2209 0.5581 2.1905 126 104 91
-1.1992 0.562852 2.20829 126 103 95
-1.16798 0.563427 2.20969 124 106 96
-1.14557 0.568191 2.22751 116 101 78
-1.1227 0.572964 2.24536 112 93 78
-0.855466 0.46857 1.83457 42 35 29
-0.834776 0.471767 1.84639 38 29 22
-0.808835 0.472244 1.84754 29 24 18
-0.793356 0.478673 1.87199 40 31 32
-0.767083 0.479157 1.87316 35 24 28
-0.74081 0.479641 1.87433 29 23 23
-0.724398 0.486343 1.89981 36 30 30
-0.697779 0.486833 1.901 39 32 26
-0.666393 0.484083 1.88953 35 27 24
-0.644542 0.487813 1.90337 45 35 33
-0.621993 0.4913 1.91626 40 33 25
-0.599437 0.495044 1.93013 44 37 31
-0.568424 0.492287 1.91865 37 30 22
-0.545508 0.496037 1.93254 42 30 32
-0.52195 0.499542 1.94547 44 39 33
-0.498329 0.503305 1.95939 45 38 28
-0.474349 0.507075 1.97333 32 23 24
-0.446859 0.507581 1.97455 38 31 23
-0.41937 0.508087 1.97578 37 26 30
-0.39188 0.508593 1.977 31 23 20
-0.36439 0.509099 1.97823 39 29 28
-0.339518 0.513141 1.9932 39 29 30
-0.309411 0.510111 1.98068 32 24 21
-0.367335 0.646264 2.5087 76 59 51
-0.33549 0.652226 2.53091 79 60 56
-0.300298 0.652874 2.53248 82 69 61
-0.267699 0.659107 2.55571 88 62 61
-0.232203 0.65976 2.55729 86 73 56
-0.198692 0.666009 2.58057 92 73 67
-0.162891 0.666668 2.58216 88 76 64
-0.127091 0.667327 2.58376 97 77 68
-0.0924117 0.673854 2.60807 94 71 63
-0.0562933 0.674519 2.60968 92 74 62
-0.0206597 0.681063 2.63404 99 78 73
0.0157767 0.681734 2.63566 95 77 57
0.0523644 0.688295 2.66006 88 70 70
0.0881801 0.677179 2.61612 29 28 23
0.118479 0.634215 2.44919 35 27 25
0.145902 0.600928 2.31974 36 31 35
0.168561 0.562944 2.17226 48 38 37
0.19169 0.540585 2.08518 50 40 38
0.215313 0.526684 2.0308 47 40 34
0.237697 0.513528 1.97933 48 33 36
0.245606 0.471688 1.81734 133 117 102
0.264966 0.461292 1.77662 159 136 120
0.283308 0.451134 1.73685 155 142 123
0.302421 0.444062 1.709 179 151 127
0.320904 0.437234 1.6821 130 30 30
0.342154 0.435321 1.67414 144 68 68
0.361353 0.431066 1.65718 181 125 126
0.382194 0.429402 1.65019 187 135 139
0.404637 0.429815 1.65119 187 121 131
0.424905 0.427884 1.64318 187 110 118
0.444923 0.425949 1.63517 178 158 131
0.464963 0.424269 1.62814 182 160 136
0.487046 0.424676 1.62912 172 157 124
0.504081 0.420638 1.61306 161 141 117
0.523442 0.418946 1.606 86 72 63
0.54518 0.419346 1.60697 184 157 128
0.563871 0.417386 1.59889 172 150 127
0.579848 0.413584 1.58377 168 144 120
0.604168 0.41608 1.59277 158 127 107
0.62567 0.416476 1.59373 139 103 87
0.653867 0.421347 1.61181 155 85 85
0.675604 0.421747 1.61278 164 88 92
0.700713 0.424258 1.62182 162 91 99
0.715161 0.420171 1.60564 152 107 102
0.736774 0.420569 1.6066 155 128 107
0.762553 0.423348 1.61666 141 119 95
0.776187 0.419247 1.60044 131 107 83
0.793764 0.417522 1.5933 92 77 58
-1.28338 0.587943 2.18623 114 101 84
-1.25239 0.588513 2.18761 127 95 96
-1.2214 0.589084 2.18899 121 99 88
-1.19971 0.59407 2.20678 123 108 101
-1.17754 0.599066 2.22458 118 104 91
-1.15491 0.60407 2.24241 112 96 83
-1.12322 0.604653 2.24382 118 101 83
-1.10037 0.609931 2.26265 115 98 90
-0.861139 0.497226 1.84397 40 40 30
-0.846329 0.503975 1.86837 43 37 25
-0.820056 0.504459 1.86954 42 38 27
-0.793783 0.504942 1.87072 38 27 23
-0.772577 0.508571 1.88353 42 31 25
-0.746139 0.509058 1.88471 41 30 24
-0.72483 0.512958 1.89852 30 28 13
-0.698212 0.513448 1.89971 36 28 25
-0.675997 0.517095 1.91257 36 24 24
-0.649212 0.517588 1.91376 30 23 17
-0.622428 0.518081 1.91496 28 20 17
-0.599875 0.522004 1.92882 42 32 30
-0.576651 0.52567 1.94173 36 25 21
-0.549521 0.526169 1.94294 34 25 20
-0.526083 0.530109 1.95685 38 34 23
-0.502285 0.534054 1.97077 42 33 24
-0.471463 0.531114 1.95928 39 28 22
-0.450702 0.538782 1.98692 40 29 23
-0.419816 0.535573 1.97444 44 36 25
-0.395335 0.539801 1.98938 39 32 24
-0.367651 0.540311 1.99062 32 25 17
-0.339968 0.54082 1.99185 41 33 22
-0.312285 0.54133 1.99309 37 31 17
-0.367902 0.68116 2.50701 73 55 43
-0.339268 0.69329 2.55082 80 59 58
-0.30087 0.688061 2.53077 76 64 42
-0.270874 0.700486 2.57563 88 65 59
-0.235074 0.701145 2.57723 83 68 47
-0.199273 0.701804 2.57883 94 75 61
-0.165235 0.708637 2.6031 87 68 64
-0.129117 0.709302 2.60471 91 77 66
-0.0929983 0.709967 2.60632 98 78 71
-0.05688 0.710632 2.60793 102 83 69
-0.0212515 0.717494 2.63227 98 79 62
0.0151849 0.718165 2.63389 98 86 74
0.0517674 0.725044 2.65828 96 74 60
0.0885218 0.725721 2.65992 74 65 50
0.115311 0.647153 2.37126 32 29 24
0.146244 0.637738 2.33603 34 25 18
0.174119 0.619363 2.26802 38 34 25
0.192282 0.573016 2.09769 47 34 28
0.213699 0.551014 2.01654 51 37 34
0.237257 0.540654 1.97802 52 38 38
0.258538 0.527554 1.9295 54 46 43
0.261824 0.479853 1.75455 144 126 106
0.280175 0.469668 1.71678 179 150 132
0.29919 0.462462 1.68993 131 42 48
0.31588 0.452786 1.65407 67 49 35
0.336945 0.451015 1.6471 129 37 38
0.355788 0.446505 1.63013 129 38 35
0.374348 0.442259 1.61414 147 91 78
0.394486 0.440471 1.60712 176 134 122
0.414402 0.438679 1.6001 165 140 120
0.433842 0.436609 1.59206 171 154 124
0.457877 0.43948 1.60204 183 156 135
0.477068 0.437404 1.59399 169 154 121
0.493933 0.433398 1.57891 179 154 132
0.51284 0.431587 1.57184 168 153 110
0.534122 0.431979 1.57279 162 130 115
0.555403 0.43237 1.57374 176 153 119
0.573867 0.430552 1.56665 185 160 130
0.597965 0.433154 1.57564 181 115 119
0.61355 0.429393 1.56149 169 95 108
0.631476 0.427565 1.55438 174 104 115
0.64918 0.425732 1.54725 144 67 77
0.673402 0.428337 1.55625 140 74 75
0.70089 0.43289 1.57231 166 104 115
0.72206 0.43328 1.57325 168 130 127
0.743231 0.43367 1.5742 153 130 124
0.768213 0.436288 1.58323 149 127 103
0.789494 0.43668 1.58417 135 117 77
-1.29388 0.623565 2.20109 121 102 85
-1.25289 0.619497 2.18611 112 91 74
-1.23144 0.624714 2.20387 123 98 102
-1.20021 0.625289 2.20526 117 99 89
-1.17805 0.63052 2.22306 118 103 80
-1.15542 0.635758 2.24087 128 109 92
-1.12373 0.636342 2.24228 119 93 102
-1.10089 0.641868 2.2611 123 101 90
-0.867294 0.526462 1.85432 41 36 33
-0.846755 0.530244 1.8671 37 36 31
-0.825885 0.534032 1.87989 40 34 36
-0.794209 0.531211 1.86944 42 29 23
-0.773007 0.535006 1.88225 38 27 25
-0.751881 0.539082 1.89604 39 29 20
-0.725263 0.539572 1.89723 35 27 25
-0.703217 0.543382 1.91008 39 30 23
-0.672025 0.540553 1.8996 28 28 16
-0.654242 0.547972 1.92511 29 24 20
-0.631352 0.551797 1.93799 34 29 25
-0.604222 0.552296 1.9392 26 22 21
-0.577092 0.552796 1.94041 40 29 33
-0.549961 0.553295 1.94162 36 27 30
-0.522831 0.553795 1.94283 30 20 18
-0.502732 0.56154 1.96943 44 30 30
-0.475242 0.562046 1.97066 36 24 26
-0.451151 0.566461 1.98557 44 35 28
-0.423468 0.566971 1.98681 34 26 24
-0.395785 0.567481 1.98804 46 31 34
-0.370718 0.57163 2.00201 37 22 25
-0.342855 0.572143 2.00325 43 32 28
-0.314992 0.572656 2.00449 43 29 26
-0.368469 0.716057 2.50531 66 53 44
-0.336633 0.7226 2.52749 76 58 48
-0.304348 0.729435 2.55068 80 66 57
-0.268852 0.730088 2.55226 96 71 64
-0.235655 0.73694 2.57549 93 76 66
-0.20194 0.744085 2.59973 104 86 76
-0.165822 0.74475 2.60134 118 101 85
-0.129703 0.745415 2.60295 115 99 84
-0.093585 0.74608 2.60456 131 111 104
-0.0574666 0.746745 2.60617 132 114 104
-0.0223385 0.76044 2.65322 132 115 105
0.014416 0.761117 2.65486 130 112 100
0.0511704 0.761793 2.65649 126 110 95
0.0879249 0.76247 2.65813 106 89 82
0.124679 0.763147 2.65977 41 29 33
0.146578 0.675046 2.3523 22 17 21
0.172567 0.64574 2.24966 29 25 22
0.195201 0.61467 2.14093 32 27 24
0.214408 0.582402 2.0281 42 38 37
0.235581 0.564353 1.96478 46 38 35
0.258108 0.553989 1.92822 52 43 34
0.27397 0.531304 1.84885 86 74 62
0.279794 0.493116 1.71564 156 129 112
0.295809 0.480079 1.66989 157 130 109
0.314137 0.473041 1.64501 164 149 130
0.333234 0.468287 1.62806 168 135 116
0.352032 0.46381 1.6121 175 152 121
0.368652 0.457025 1.58812 176 155 128
0.386627 0.452817 1.5731 185 164 135
0.408019 0.453211 1.57406 179 159 134
0.42533 0.448991 1.55901 172 155 129
0.444619 0.44736 1.55295 168 146 109
0.463431 0.445437 1.54588 160 143 113
0.482022 0.44351 1.5388 174 152 129
0.500702 0.441868 1.53271 175 154 127
0.521457 0.442251 1.53364 164 146 124
0.537143 0.438284 1.51951 169 143 116
0.557691 0.438663 1.52043 155 135 108
0.586284 0.44543 1.54345 168 141 132
0.607136 0.445814 1.54438 181 151 125
0.627989 0.446197 1.54531 181 150 130
0.645991 0.444543 1.53919 187 152 132
0.660432 0.440554 1.52501 174 148 123
0.674458 0.436557 1.5108 158 118 93
0.691659 0.434888 1.50465 150 101 94
0.71514 0.437306 1.51262 136 89 71
0.749769 0.446454 1.54382 152 124 102
0.770525 0.446836 1.54474 152 132 99
-1.28438 0.64991 2.18322 123 102 83
-1.26317 0.655358 2.20096 112 95 77
-1.23194 0.655933 2.20235 114 102 78
-1.21002 0.661394 2.22013 123 99 97
-1.17856 0.661973 2.22153 113 95 91
-1.17464 0.677813 2.27406 113 96 89
-1.13335 0.673218 2.25812 123 100 94
-1.11026 0.678998 2.27693 110 91 85
-0.861981 0.549101 1.84145 39 26 18
-0.847182 0.556513 1.86582 36 27 22
-0.820909 0.556997 1.86699 40 30 31
-0.799875 0.560954 1.87979 42 32 33
-0.778932 0.565207 1.89356 27 24 15
-0.746997 0.561928 1.88214 35 28 20
-0.730436 0.56967 1.90758 32 28 19
-0.708608 0.573939 1.9214 49 30 26
-0.681644 0.574436 1.9226 29 22 29
-0.65468 0.574932 1.9238 28 29 23
-0.627715 0.575428 1.925 27 25 13
-0.600751 0.575925 1.92621 37 29 18
-0.577532 0.579922 1.9391 37 25 29
-0.550402 0.580422 1.94031 33 27 29
-0.52697 0.58472 1.95419 30 25 19
-0.503178 0.589026 1.9681 38 30 27
-0.475689 0.589532 1.96932 38 28 29
-0.45476 0.59795 1.99693 37 31 19
-0.426897 0.598463 1.99817 44 33 27
-0.399034 0.598976 1.99941 36 29 23
-0.37117 0.599489 2.00066 42 31 29
-0.345935 0.604118 2.01561 39 32 24
-0.317878 0.604635 2.01686 39 30 25
-0.372397 0.757139 2.52421 91 75 62
-0.340421 0.764272 2.54737 106 78 74
-0.307837 0.771417 2.57056 109 88 87
-0.272037 0.772076 2.57216 117 93 89
-0.236237 0.772735 2.57375 115 97 77
-0.202527 0.780198 2.59798 112 86 85
-0.166408 0.780863 2.59959 120 101 87
-0.13029 0.781528 2.6012 117 95 82
-0.0941716 0.782193 2.60281 118 95 87
-0.0580533 0.782858 2.60442 118 97 92
-0.0229354 0.797189 2.65143 123 103 96
0.013819 0.797866 2.65307 121 98 92
0.0505734 0.798542 2.65471 110 87 79
0.0873279 0.799219 2.65635 100 79 74
0.12331 0.793039 2.63523 53 39 36
0.147852 0.71882 2.38835 23 26 15
0.172064 0.676723 2.24815 31 26 23
0.195848 0.648602 2.15437 28 23 17
0.215199 0.614449 2.04063 36 28 26
0.233808 0.587422 1.95057 54 45 40
0.256281 0.576828 1.91502 49 39 38
0.274993 0.559918 1.85855 52 41 37
0.292534 0.543878 1.80499 105 86 72
0.294017 0.500174 1.65983 146 142 113
0.312226 0.492774 1.63496 170 144 129
0.329717 0.485361 1.61005 171 155 130
0.345092 0.475827 1.57813 182 161 134
0.361475 0.468989 1.55515 179 164 125
0.381055 0.467267 1.54911 177 156 129
0.400201 0.465239 1.54206 177 162 129
0.419126 0.463208 1.535 175 161 124
0.438098 0.461475 1.52893 179 160 130
0.456594 0.459435 1.52185 178 158 131
0.475165 0.457695 1.51576 174 154 117
0.491061 0.453525 1.50165 166 148 128
