ply
format ascii 1.0
element vertex 1323
property float x
property float y
property float z
property uchar red
property uchar green
property uchar blue
end_header
0.48564 0.398829 1.65125 150 135 104
0.507825 0.399213 1.65242 99 79 72
0.537895 0.405759 1.67971 146 130 97
0.557903 0.404252 1.67287 163 139 113
0.582985 0.406541 1.6821 156 139 111
0.605529 0.406931 1.68329 163 146 120
0.625205 0.405419 1.67642 162 145 117
0.644288 0.403665 1.66854 161 141 114
0.666597 0.404052 1.66972 156 121 91
0.688907 0.404439 1.6709 155 127 113
0.711217 0.404825 1.67208 158 133 111
0.733526 0.405212 1.67326 149 130 97
0.751862 0.403445 1.66533 160 136 110
0.774047 0.40383 1.6665 159 137 116
0.788257 0.400138 1.65045 150 134 101
0.810207 0.400518 1.65161 130 111 94
-1.291 0.546335 2.18394 123 105 81
-1.26003 0.546873 2.18558 121 102 87
-1.22905 0.54741 2.18722 126 107 90
-1.19807 0.547947 2.18885 123 105 103
-1.18546 0.556513 2.2231 125 106 92
-1.16296 0.561077 2.24108 123 100 86
-1.13128 0.561626 2.24275 123 103 92
-1.0996 0.562175 2.24443 112 95 87
-0.860902 0.461484 1.83536 43 35 33
-0.840304 0.464542 1.84731 35 26 31
-0.814373 0.464991 1.84868 38 29 30
-0.793762 0.468295 1.86162 34 27 21
-0.767665 0.468747 1.863 37 32 29
-0.746556 0.472059 1.87597 37 32 36
-0.725116 0.475377 1.88896 33 28 25
-0.703732 0.47894 1.90293 37 30 24
-0.677124 0.479401 1.90433 33 24 27
-0.650515 0.479863 1.90574 36 26 25
-0.623907 0.480324 1.90715 40 30 28
-0.605618 0.486779 1.9328 37 25 29
-0.578664 0.487246 1.93423 46 36 37
-0.547743 0.484591 1.92303 39 31 28
-0.524756 0.488181 1.93708 38 29 30
-0.501132 0.491537 1.95018 36 27 18
-0.477439 0.495139 1.96427 42 31 27
-0.453387 0.498748 1.97838 36 25 23
-0.425908 0.499224 1.97984 35 28 22
-0.398429 0.499701 1.98129 50 36 33
-0.373867 0.503564 1.99641 43 35 32
-0.346194 0.504044 1.99788 42 31 27
-0.315991 0.50113 1.98565 46 32 32
-0.377967 0.631647 2.51171 75 56 50
-0.346293 0.637351 2.53412 75 63 51
-0.311115 0.637961 2.53598 71 60 54
-0.278696 0.643925 2.55943 90 66 64
-0.243213 0.64454 2.5613 92 73 69
-0.209882 0.650519 2.58479 90 73 63
-0.174095 0.65114 2.58668 84 74 65
-0.138309 0.65176 2.58858 93 74 67
-0.103817 0.658005 2.61312 101 83 69
-0.0677129 0.658631 2.61502 97 79 65
-0.0322678 0.664892 2.63961 107 83 79
0.00415456 0.665524 2.64154 98 80 66
0.0405534 0.671802 2.66618 96 78 74
0.0767049 0.661135 2.62266 28 24 21
0.108816 0.624867 2.47622 32 27 34
0.137427 0.592465 2.3454 27 23 24
0.161357 0.555563 2.19656 44 32 34
0.18626 0.537337 2.12282 48 37 33
0.208325 0.516851 2.04004 58 48 49
0.232348 0.507448 2.00181 48 41 35
0.246281 0.477738 1.88206 110 92 82
0.26116 0.456637 1.79693 162 145 127
0.278574 0.444418 1.74749 163 142 125
0.2979 0.437633 1.71987 163 154 125
0.316589 0.431083 1.69321 131 56 60
0.337898 0.429243 1.68544 110 29 26
0.357227 0.425159 1.66869 182 119 138
0.378121 0.423558 1.6619 197 142 148
0.400555 0.423947 1.66308 201 138 147
0.422989 0.424336 1.66427 189 107 122
0.440963 0.420228 1.64744 188 155 140
0.461055 0.418613 1.6406 187 163 135
0.480651 0.416743 1.63275 178 157 136
0.497973 0.413115 1.61787 169 150 120
0.519702 0.413492 1.61902 95 82 65
0.538579 0.41161 1.61113 167 145 132
0.560184 0.411985 1.61227 168 148 124
0.579032 0.410347 1.60537 157 140 114
0.612352 0.419027 1.63972 155 143 117
0.628347 0.415376 1.62476 143 125 103
0.650076 0.415753 1.62591 152 91 88
0.678202 0.420169 1.6432 153 77 90
0.696843 0.418528 1.63629 174 106 105
0.715263 0.416883 1.62936 157 113 102
0.736992 0.41726 1.63051 145 118 111
0.758721 0.417637 1.63166 142 123 106
0.772478 0.413702 1.6156 120 101 84
0.79011 0.412044 1.60863 94 78 63
-1.28131 0.573057 2.16566 119 102 84
-1.26045 0.577827 2.18354 121 104 88
-1.22948 0.578364 2.18518 122 96 99
-1.21734 0.587391 2.21936 128 111 93
-1.17671 0.583687 2.20474 122 95 86
-1.17288 0.597239 2.25625 119 99 92
-1.14095 0.597792 2.25794 120 103 87
-1.11799 0.602858 2.27691 118 100 86
-0.866594 0.490004 1.84423 35 27 24
-0.840663 0.490454 1.8456 40 35 31
-0.831197 0.499954 1.88162 35 29 31
-0.799446 0.497393 1.87146 36 28 26
-0.773183 0.497848 1.87285 41 32 33
-0.751911 0.501329 1.88582 37 33 24
-0.730709 0.505068 1.89977 45 31 30
-0.704101 0.505529 1.90117 45 33 37
-0.681985 0.509024 1.91418 32 24 22
-0.650884 0.506452 1.90399 38 29 24
-0.624275 0.506913 1.90539 37 30 24
-0.605991 0.513713 1.93103 41 32 27
-0.582866 0.517226 1.94409 40 30 29
-0.555747 0.517696 1.94553 38 29 20
-0.528627 0.518167 1.94696 41 25 25
-0.505117 0.521946 1.96103 30 25 22
-0.481247 0.525731 1.97512 46 35 33
-0.453768 0.526207 1.97657 44 33 29
-0.426289 0.526684 1.97803 36 21 18
-0.398809 0.52716 1.97948 37 28 21
-0.37425 0.531217 1.99459 43 36 28
-0.346577 0.531697 1.99605 40 33 23
-0.318905 0.532176 1.99752 30 25 19
-0.37845 0.66651 2.50941 66 53 47
-0.34678 0.672504 2.53181 75 52 46
-0.311602 0.673115 2.53367 81 67 58
-0.279187 0.679382 2.55709 80 67 51
-0.246164 0.685659 2.58054 90 69 64
-0.210377 0.68628 2.58243 91 65 74
-0.174591 0.686901 2.58433 93 74 70
-0.140422 0.693457 2.60883 98 81 65
-0.104317 0.694084 2.61074 100 82 62
-0.0682128 0.69471 2.61265 97 83 72
-0.032772 0.701289 2.63721 96 83 67
0.00365035 0.70192 2.63914 97 80 70
0.0400448 0.708516 2.66376 93 75 65
0.0764951 0.703183 2.64299 71 55 55
0.108873 0.664069 2.49374 32 29 24
0.137706 0.629301 2.36108 34 29 25
0.164456 0.602536 2.2589 36 28 26
0.185859 0.566343 2.12091 46 34 36
0.206877 0.541294 2.02532 52 42 40
0.230728 0.531335 1.98712 50 38 40
0.25238 0.518744 1.93893 49 35 34
0.258236 0.475539 1.77447 146 130 115
0.277012 0.465751 1.73698 170 152 128
0.294862 0.456207 1.70043 146 78 77
0.313308 0.449265 1.67378 76 33 27
0.332942 0.445197 1.65804 115 39 41
0.351915 0.440859 1.64129 131 40 39
0.370596 0.436774 1.6255 149 75 76
0.390787 0.43505 1.61868 171 128 119
0.410756 0.433321 1.61184 168 121 113
0.436447 0.437916 1.62898 173 153 129
0.456305 0.436186 1.62214 180 163 133
0.473466 0.432075 1.60628 175 155 128
0.495071 0.43245 1.60742 175 155 130
0.511829 0.428591 1.59252 162 144 130
0.530679 0.426843 1.58562 158 137 116
0.551952 0.427212 1.58675 173 151 127
0.57047 0.425459 1.57983 175 153 130
0.591632 0.425826 1.58095 169 116 112
0.607215 0.422206 1.56698 165 98 105
0.62817 0.42257 1.56808 152 88 102
0.645927 0.420803 1.56113 154 88 102
0.67008 0.423296 1.5703 144 61 71
0.700862 0.429795 1.59462 164 91 98
0.722135 0.430164 1.59575 164 114 117
0.736584 0.426524 1.58171 159 131 109
0.764681 0.430901 1.598 149 127 114
0.782093 0.429129 1.59102 127 103 93
-1.30199 0.612711 2.19608 116 97 80
-1.27078 0.613253 2.19773 132 102 91
-1.22991 0.609318 2.18313 125 107 87
-1.21778 0.618815 2.21729 119 104 97
-1.19552 0.623844 2.23523 129 106 98
-1.17332 0.629146 2.25414 117 91 90
-1.15062 0.634456 2.27309 112 94 80
-1.10946 0.630253 2.25752 117 92 87
-0.872775 0.519094 1.85404 52 36 36
-0.852335 0.522726 1.86695 43 33 24
-0.826072 0.523181 1.86834 43 36 28
-0.805134 0.526822 1.88128 41 27 26
-0.778705 0.52728 1.88268 44 32 16
-0.752277 0.527738 1.88408 44 32 32
-0.731077 0.531657 1.89801 42 31 29
-0.70913 0.535315 1.911 38 26 30
-0.67786 0.53258 1.90083 32 28 25
-0.660272 0.539713 1.9264 37 29 27
-0.633318 0.540181 1.92783 34 30 21
-0.610362 0.543856 1.94087 36 26 25
-0.57941 0.541115 1.93068 30 20 21
-0.556122 0.544797 1.94374 30 23 17
-0.529002 0.545267 1.94517 28 23 19
-0.505495 0.549226 1.95923 38 28 27
-0.481628 0.55319 1.97331 42 31 27
-0.454148 0.553667 1.97476 43 34 25
-0.426669 0.554143 1.97621 39 25 24
-0.402306 0.55839 1.9913 40 26 23
-0.374633 0.55887 1.99277 32 25 19
-0.352223 0.566633 2.02057 43 32 26
-0.316752 0.556049 1.98203 37 34 25
-0.382445 0.707048 2.52763 67 53 40
-0.350643 0.713608 2.551 81 63 51
-0.31516 0.714223 2.55287 73 53 44
-0.282446 0.7208 2.57629 82 65 55
-0.246659 0.72142 2.57818 94 74 65
-0.210873 0.722041 2.58008 95 76 61
-0.177026 0.72891 2.60454 107 85 74
-0.140922 0.729536 2.60645 116 97 90
-0.106121 0.736422 2.63096 116 103 86
-0.0687126 0.730788 2.61027 136 106 98
-0.0332763 0.737685 2.63481 131 113 99
0.00279591 0.744593 2.65939 130 114 101
0.0395362 0.74523 2.66134 119 107 93
0.0762765 0.745867 2.66328 112 93 86
0.11181 0.733919 2.61981 48 33 36
0.137257 0.661705 2.35894 34 24 22
0.164943 0.638149 2.27366 32 28 25
0.185457 0.59535 2.11899 33 24 25
0.207554 0.572516 2.03637 47 36 30
0.229208 0.555138 1.97344 47 37 35
0.252014 0.545154 1.93719 50 41 32
0.269832 0.526343 1.86913 69 58 56
0.275318 0.48656 1.7255 148 132 109
0.291681 0.474007 1.68003 151 102 88
0.310198 0.467226 1.65538 167 149 129
0.327996 0.460433 1.63069 155 121 93
0.348342 0.458328 1.62289 164 126 117
0.365144 0.451791 1.59914 178 146 131
0.383232 0.447734 1.58432 172 156 131
0.402747 0.445888 1.57747 180 161 129
0.422041 0.444037 1.5706 171 154 128
0.441375 0.44246 1.56473 165 145 118
0.46244 0.442826 1.56584 162 143 126
0.478884 0.438741 1.55094 172 151 130
0.499728 0.439102 1.55204 178 158 133
0.518357 0.437513 1.54612 173 153 126
0.536462 0.435642 1.5392 156 136 111
0.55469 0.434046 1.53326 171 150 123
0.58597 0.442783 1.56449 177 148 130
0.60395 0.44091 1.55755 177 131 115
0.622095 0.439312 1.55161 179 132 114
0.639647 0.437431 1.54465 188 134 124
0.657391 0.435827 1.53869 163 127 105
0.674942 0.43422 1.53272 147 99 99
0.688772 0.430362 1.51866 145 89 76
0.709008 0.430713 1.51973 164 118 105
0.739552 0.437252 1.54304 145 124 103
0.767328 0.441831 1.55929 155 134 105
-1.30242 0.6439 2.19402 118 107 77
-1.27121 0.644441 2.19567 121 106 87
-1.24966 0.649693 2.21356 120 101 95
-1.21821 0.650239 2.21522 121 104 78
-1.18677 0.650784 2.21688 120 95 90
-1.17376 0.661053 2.25204 117 97 73
-1.14183 0.661606 2.25373 121 105 90
-1.11888 0.66717 2.27267 115 94 75
-0.873137 0.545172 1.85232 34 28 16
-0.852698 0.54897 1.86522 40 26 13
-0.826436 0.549425 1.86661 36 26 24
-0.8055 0.553231 1.87954 42 32 31
-0.779071 0.55369 1.88094 39 23 24
-0.752642 0.554148 1.88233 45 35 33
-0.736275 0.561606 1.90782 37 32 29
-0.714553 0.565713 1.92177 38 29 22
-0.687599 0.56618 1.9232 41 29 33
-0.655952 0.562999 1.91207 27 24 17
-0.633691 0.567115 1.92605 32 23 16
-0.610737 0.570957 1.93908 32 21 25
-0.583617 0.571427 1.94052 31 25 25
-0.556498 0.571897 1.94195 32 27 21
-0.533172 0.576032 1.95599 31 26 22
-0.509487 0.580173 1.97004 38 29 24
-0.482008 0.58065 1.9715 39 30 23
-0.46129 0.588757 1.99918 42 38 26
-0.430362 0.585563 1.98802 43 34 25
-0.405585 0.589723 2.00213 41 31 22
-0.380657 0.594172 2.01724 36 28 25
-0.352611 0.594659 2.01872 37 28 23
-0.324566 0.595145 2.0202 41 32 27
-0.379416 0.736236 2.50481 90 73 66
-0.351134 0.749065 2.54866 109 87 73
-0.315652 0.74968 2.55053 117 94 80
-0.282941 0.756561 2.57393 121 99 85
-0.247155 0.757181 2.57582 117 100 90
-0.21363 0.764362 2.60025 115 96 89
-0.177526 0.764988 2.60216 120 99 82
-0.141421 0.765615 2.60407 116 97 82
-0.105317 0.766241 2.60598 119 96 88
-0.0692124 0.766867 2.60789 122 105 95
-0.0337805 0.774081 2.63241 121 102 88
0.00264192 0.774713 2.63434 110 89 84
0.0390276 0.781944 2.65892 115 96 90
0.0757679 0.782581 2.66086 103 86 79
0.111909 0.776608 2.64012 84 74 64
0.138324 0.70504 2.39431 32 28 25
0.164511 0.669338 2.2716 32 27 21
0.191266 0.650863 2.20802 26 21 17
0.209446 0.608423 2.06223 46 38 27
0.227598 0.57832 1.9588 47 36 30
0.25034 0.568098 1.92356 50 47 42
0.272305 0.558435 1.89025 51 42 33
0.287427 0.536315 1.81423 91 75 62
0.291365 0.496784 1.67853 155 138 120
0.308409 0.487036 1.64496 164 143 122
0.326088 0.479882 1.62029 175 157 137
0.34324 0.473005 1.59657 178 160 136
0.358261 0.464083 1.56585 174 161 129
0.377886 0.462415 1.55999 177 164 132
0.397085 0.460452 1.55313 174 159 130
0.416062 0.458486 1.54626 180 164 141
0.435079 0.456807 1.54037 178 158 131
0.453628 0.454833 1.53347 181 155 130
0.472244 0.453147 1.52756 168 142 115
0.490667 0.451458 1.52164 164 142 118
0.50858 0.449473 1.51471 181 158 127
0.526602 0.447777 1.50877 172 156 131
0.542023 0.444027 1.4958 172 152 117
0.56457 0.446426 1.50388 161 133 112
0.579507 0.442668 1.49088 163 135 111
0.607547 0.44918 1.51305 172 154 118
0.633772 0.453939 1.52921 166 152 123
0.650911 0.451941 1.52224 173 149 123
0.665267 0.448173 1.50921 173 153 116
0.685406 0.448522 1.51027 171 154 126
0.702364 0.446807 1.50427 165 128 101
0.71585 0.443024 1.4912 147 113 75
0.735699 0.443368 1.49225 151 133 111
-1.32312 0.684964 2.22435 120 104 79
-1.27164 0.67563 2.19362 114 97 87
-1.25976 0.686062 2.2277 116 96 89
-1.22808 0.686612 2.22938 122 97 90
-1.1964 0.687161 2.23105 123 105 81
-1.1742 0.69296 2.24994 124 103 108
-1.14227 0.693514 2.25163 111 94 84
-1.12832 0.704583 2.28779 113 101 87
-0.885152 0.578266 1.8736 44 30 30
-0.858723 0.578725 1.875 38 34 35
-0.832294 0.579183 1.8764 32 26 30
-0.811639 0.583451 1.89028 43 33 31
-0.790194 0.587432 1.90323 43 33 34
-0.76342 0.587897 1.90464 44 35 28
-0.74188 0.59218 1.91857 33 25 22
-0.714926 0.592647 1.92 40 30 28
-0.687972 0.593115 1.92142 32 25 19
-0.665352 0.597116 1.93443 33 28 24
-0.642748 0.601418 1.94841 37 29 27
-0.611113 0.598057 1.9373 41 31 32
-0.588149 0.602365 1.9513 33 26 18
-0.560849 0.602839 1.95275 40 28 28
-0.53355 0.603312 1.95419 31 25 25
-0.509867 0.607633 1.96823 35 21 20
-0.482388 0.608109 1.96969 45 30 33
-0.458417 0.612736 1.98473 34 26 23
-0.437138 0.621225 2.01242 40 28 28
-0.40597 0.617555 2.0003 38 31 25
-0.381046 0.622198 2.01539 31 22 17
-0.353 0.622684 2.01687 34 27 19
-0.324954 0.623171 2.01836 32 27 21
-0.379898 0.771099 2.50251 77 64 55
-0.348241 0.777964 2.52485 93 77 64
-0.316143 0.785137 2.5482 100 75 70
-0.28066 0.785753 2.55007 99 79 68
-0.24765 0.792942 2.57347 99 82 62
-0.21413 0.800441 2.59787 105 89 76
-0.178026 0.801067 2.59978 105 84 81
-0.141921 0.801693 2.60169 104 85 68
-0.105817 0.802319 2.6036 110 87 73
-0.0697122 0.802945 2.60551 101 78 64
-0.0349616 0.817383 2.65261 104 82 69
0.00213771 0.811109 2.63194 93 74 60
0.0385601 0.811741 2.63387 88 68 61
0.0749825 0.812372 2.63579 86 66 59
0.111405 0.813004 2.63772 71 50 49
0.146002 0.799768 2.59429 23 15 12
0.164079 0.700527 2.26955 25 19 21
0.190847 0.681141 2.20602 30 25 29
0.212463 0.649333 2.10188 26 26 18
0.229602 0.612636 1.98176 41 32 33
0.248671 0.59071 1.90995 53 41 41
0.270476 0.580561 1.87667 48 38 37
0.288585 0.564333 1.82351 52 45 39
0.30863 0.555056 1.79308 116 99 91
0.306623 0.506597 1.63455 164 147 127
0.324361 0.499385 1.61089 162 147 126
0.339873 0.489729 1.57924 147 129 109
0.354885 0.480665 1.54953 159 147 121
0.372549 0.47646 1.53571 171 153 133
0.389799 0.472248 1.52186 173 155 131
0.406634 0.468028 1.50799 173 151 137
0.426967 0.468381 1.50907 173 155 133
0.445377 0.466595 1.50315 170 153 125
0.461574 0.462665 1.49023 169 152 126
0.481617 0.463012 1.49129 166 149 123
0.499447 0.461216 1.48535 158 140 118
0.519393 0.461562 1.4864 173 148 128
0.534526 0.457614 1.47343 170 146 118
0.554278 0.457956 1.47447 171 147 121
0.574031 0.458299 1.47552 168 142 119
0.591086 0.456489 1.46953 141 84 64
0.610742 0.45683 1.47057 140 93 75
0.62792 0.455323 1.46558 158 120 107
0.641519 0.451348 1.45252 167 145 124
0.682044 0.466488 1.50189 171 154 126
0.698906 0.464675 1.4959 175 154 125
0.715575 0.462859 1.48989 174 144 116
0.73205 0.461039 1.48388 157 137 112
-1.31342 0.71145 2.20609 104 87 77
-1.28198 0.711995 2.20775 116 103 84
-1.2602 0.717721 2.22561 112 95 75
-1.22852 0.71827 2.22729 120 101 84
-1.20657 0.724313 2.24614 124 103 98
-1.18413 0.730365 2.26503 125 96 101
-1.15195 0.730923 2.26673 117 99 79
-1.12877 0.736988 2.28565 111 95 95
-0.879688 0.601002 1.86037 36 32 21
-0.859089 0.605134 1.87326 44 32 42
-0.83266 0.605593 1.87466 21 18 11
-0.812007 0.61004 1.88853 38 33 30
-0.790565 0.614187 1.90146 38 31 25
-0.763791 0.614652 1.90288 38 28 27
-0.742253 0.619115 1.9168 41 34 24
-0.719967 0.623276 1.92977 34 28 32
-0.688345 0.620049 1.91965 41 40 38
-0.665728 0.624217 1.93264 39 33 35
-0.643126 0.628698 1.94661 35 27 24
-0.615826 0.629172 1.94806 35 29 31
-0.588527 0.629645 1.9495 32 24 22
-0.561227 0.630118 1.95095 38 27 31
-0.537727 0.634616 1.96497 38 29 30
-0.514146 0.639429 1.97998 30 30 22
-0.489913 0.643939 1.99404 34 26 24
-0.465572 0.648765 2.00909 30 26 27
-0.437526 0.649251 2.01057 31 21 20
-0.40948 0.649737 2.01206 32 26 30
-0.381434 0.650224 2.01354 36 24 26
-0.356125 0.655067 2.02864 29 26 19
-0.325342 0.651197 2.01651 33 22 30
-0.383906 0.812507 2.52067 76 59 52
-0.352117 0.819979 2.54398 78 61 51
-0.319719 0.827462 2.56732 80 60 53
-0.283932 0.828082 2.56922 64 54 42
-0.245669 0.821825 2.54961 73 58 55
-0.210187 0.82244 2.55149 74 51 45
-0.174704 0.823055 2.55336 80 54 41
-0.137658 0.816777 2.5337 86 59 52
-0.103739 0.824286 2.55712 74 53 36
-0.0673011 0.817997 2.53742 87 64 58
-0.0327745 0.825517 2.56087 79 55 45
0.00270798 0.826132 2.56275 75 55 44
0.0381904 0.826747 2.56462 90 66 64
0.0736729 0.827363 2.5665 74 57 49
0.109155 0.827978 2.56838 71 52 46
0.143769 0.821657 2.54858 62 43 39
0.190427 0.711418 2.20402 26 21 28
0.213278 0.682872 2.11479 34 27 35
0.23823 0.669778 2.07384 38 32 32
0.247006 0.61299 1.89637 53 47 35
0.268775 0.602672 1.86409 56 49 39
0.288241 0.589168 1.82187 55 44 42
0.305141 0.572788 1.77066 46 35 39
0.319591 0.554478 1.71342 132 117 98
0.321037 0.515809 1.59258 107 98 93
0.336513 0.506011 1.56194 93 79 76
0.352952 0.49906 1.5402 103 92 86
0.36744 0.490188 1.51246 111 98 90
0.384388 0.485764 1.49861 127 114 97
0.401169 0.48165 1.48573 175 152 134
0.419387 0.479764 1.47982 178 156 135
0.43549 0.475639 1.4669 181 156 134
0.453225 0.473745 1.46096 175 156 126
0.471068 0.472167 1.45601 176 152 126
0.488429 0.470266 1.45004 176 160 127
0.503618 0.466439 1.43807 164 126 117
0.522914 0.466774 1.43909 149 97 99
0.544355 0.469033 1.44612 154 92 81
0.561507 0.467443 1.44113 146 52 52
0.583113 0.469705 1.44817 137 41 53
0.600099 0.468112 1.44317 142 34 34
0.619395 0.468447 1.44419 115 29 32
0.638692 0.468782 1.44521 173 135 122
0.652264 0.464927 1.43315 139 120 103
0.668655 0.463324 1.42812 122 110 98
0.690497 0.46559 1.43517 122 97 90
0.718768 0.472058 1.45534 130 112 92
-1.324 0.748281 2.22017 121 107 72
-1.29232 0.74883 2.22185 123 112 92
-1.27088 0.755113 2.24066 134 121 105
-1.23895 0.755667 2.24235 140 126 117
-1.20702 0.75622 2.24404 139 131 110
-1.18458 0.762521 2.26291 158 138 127
-1.1524 0.763079 2.26461 149 134 131
-1.13871 0.775467 2.30167 156 143 124
-1.11526 0.782113 2.32157 78 62 65
-0.865593 0.635707 1.88396 33 26 20
-0.833026 0.632002 1.87292 22 15 9
-0.81771 0.640478 1.89828 41 24 32
-0.796534 0.645114 1.91217 31 28 21
-0.76958 0.645582 1.91359 37 28 29
-0.747463 0.649906 1.92655 33 23 21
-0.725402 0.654558 1.94048 36 29 19
-0.698103 0.655031 1.94193 31 24 18
-0.670803 0.655505 1.94337 33 24 29
-0.643504 0.655978 1.94482 40 28 32
-0.620545 0.660645 1.9588 36 27 22
-0.593066 0.661122 1.96025 32 22 21
-0.565587 0.661599 1.9617 41 26 31
-0.542202 0.666602 1.97669 34 27 17
-0.518151 0.671288 1.99073 37 25 25
-0.494006 0.676304 2.00576 36 24 24
-0.46596 0.676791 2.00724 29 20 15
-0.437914 0.677277 2.00873 45 34 30
-0.412995 0.682307 2.02379 34 29 36
-0.384755 0.682796 2.02529 42 28 27
-0.356516 0.683286 2.02678 39 27 27
-0.328276 0.683776 2.02827 36 24 24
-0.377336 0.833989 2.47748 44 34 25
-0.342738 0.834589 2.47931 60 47 31
-0.311088 0.842035 2.50161 70 47 41
-0.2762 0.84264 2.50345 75 50 43
-0.238944 0.836389 2.4848 69 53 40
-0.204347 0.836989 2.48663 76 54 41
-0.169749 0.837589 2.48846 74 54 45
-0.136648 0.84506 2.51083 80 52 48
-0.100553 0.838789 2.49212 84 60 50
-0.0668717 0.84627 2.51452 87 66 49
-0.0313575 0.839989 2.49577 87 64 50
0.00290446 0.84748 2.51821 94 69 62
0.0378381 0.841189 2.49943 87 66 61
0.0726806 0.84869 2.5219 73 59 50
0.107034 0.842389 2.50309 72 59 53
0.141632 0.842989 2.50492 65 47 43
0.175114 0.836673 2.48607 48 30 26
0.188937 0.736422 2.18626 39 31 29
0.211665 0.706932 2.09808 37 33 24
0.236512 0.69357 2.05814 33 27 27
0.267078 0.624479 1.85154 54 44 45
0.286401 0.610364 1.80935 45 36 29
0.304807 0.596891 1.76907 48 41 35
0.322543 0.584391 1.7317 58 44 35
0.322336 0.540381 1.60008 74 64 54
0.331819 0.519528 1.53773 109 96 87
0.349586 0.51491 1.52393 87 77 67
0.363872 0.505634 1.49621 137 121 106
0.380849 0.501331 1.48335 173 154 139
0.397439 0.497021 1.47048 175 154 127
0.412079 0.490707 1.45161 179 158 131
0.427811 0.486382 1.43869 179 163 137
0.443445 0.482384 1.42675 176 158 138
0.460833 0.480715 1.42178 174 157 127
0.475845 0.476706 1.4098 172 154 130
0.494782 0.477035 1.4108 168 127 125
0.513719 0.477363 1.41181 185 121 135
0.532656 0.477692 1.41281 182 118 134
0.551593 0.47802 1.41381 172 102 110
0.56822 0.476338 1.4088 163 97 111
0.589466 0.478677 1.41581 164 92 96
0.608403 0.479005 1.41681 157 115 91
0.624782 0.477319 1.41179 165 139 122
0.638354 0.473613 1.40072 176 155 124
0.66249 0.477973 1.41378 166 145 116
0.681344 0.4783 1.41478 145 122 104
0.700198 0.478626 1.41578 127 104 88
-1.32444 0.779939 2.21809 139 119 112
-1.29276 0.780489 2.21976 137 124 108
-1.26107 0.781038 2.22144 131 120 114
-1.23939 0.787574 2.24025 144 120 108
-1.20746 0.788128 2.24194 139 121 119
-1.18502 0.794677 2.26078 144 115 111
-1.15285 0.795235 2.26249 138 120 98
-1.12067 0.795793 2.26419 136 115 98
-0.865961 0.662296 1.88221 44 35 28
-0.839353 0.662757 1.88362 38 28 27
-0.823861 0.671582 1.90897 28 30 17
-0.796907 0.672049 1.91039 29 26 21
-0.769953 0.672516 1.91182 33 26 18
-0.75308 0.681364 1.93724 38 34 25
-0.72578 0.681838 1.93869 37 26 22
-0.698481 0.682311 1.94013 28 24 21
-0.671181 0.682785 1.94157 40 29 25
-0.648405 0.687628 1.95553 51 31 32
-0.625603 0.692815 1.97048 33 29 18
-0.59793 0.693295 1.97194 35 27 24
-0.570258 0.693775 1.97341 36 25 23
-0.546389 0.698637 1.98742 28 26 14
-0.52244 0.703844 2.00243 35 27 25
-0.494394 0.70433 2.00391 40 31 24
-0.466348 0.704816 2.00539 37 26 24
-0.441625 0.710036 2.02044 38 28 26
-0.413386 0.710526 2.02193 26 23 18
-0.385146 0.711016 2.02343 28 18 16
-0.356907 0.711505 2.02492 42 31 29
-0.331216 0.716742 2.04002 25 20 14
-0.300428 0.712485 2.02791 51 37 28
-0.333798 0.84845 2.41767 58 39 25
-0.300043 0.849036 2.41945 68 53 50
-0.266288 0.849621 2.42124 81 54 43
-0.232534 0.850206 2.42302 72 49 41
-0.198779 0.850792 2.42481 72 52 41
-0.165025 0.851377 2.42659 76 54 41
-0.13127 0.851963 2.42838 80 56 52
-0.0975153 0.852548 2.43016 84 60 56
-0.0637607 0.853133 2.43195 76 57 40
-0.0300061 0.853719 2.43373 96 70 53
0.0034249 0.861143 2.45513 87 59 58
0.037456 0.861733 2.45693 90 63 52
0.0714871 0.862323 2.45873 83 58 53
0.105012 0.85606 2.44087 81 60 55
0.138767 0.856645 2.44266 78 55 47
0.172522 0.857231 2.44444 64 49 44
0.201137 0.831376 2.3704 23 20 15
0.213683 0.74604 2.12575 28 23 30
0.236122 0.721789 2.05628 39 34 28
0.255595 0.694407 1.97783 35 26 31
0.265385 0.645982 1.83901 58 49 50
0.284564 0.631257 1.79685 50 40 48
0.304473 0.620994 1.76748 54 40 29
0.320581 0.604504 1.72025 48 42 44
0.334094 0.585575 1.66601 52 41 39
0.330192 0.537939 1.52941 140 124 98
0.34643 0.530692 1.50868 163 149 136
0.36206 0.523434 1.48792 168 146 125
0.378943 0.518936 1.47508 168 147 118
0.393714 0.512005 1.45525 179 159 135
0.408164 0.505411 1.43639 179 159 134
0.42398 0.501237 1.42447 187 163 129
0.437709 0.494973 1.40655 179 159 134
0.454836 0.493217 1.40157 182 162 135
0.46801 0.487285 1.3846 181 158 124
0.484638 0.48552 1.3796 181 155 128
0.501101 0.483752 1.37458 185 149 137
0.521683 0.486163 1.38156 180 141 134
0.53798 0.484392 1.37653 174 126 124
0.561035 0.488898 1.38952 166 99 106
0.574858 0.485031 1.37848 179 107 111
0.593298 0.485351 1.37946 167 139 125
0.611737 0.485671 1.38043 168 143 121
0.630176 0.485991 1.38141 164 149 108
0.64317 0.482109 1.37032 158 138 114
0.661443 0.482426 1.37128 164 136 115
0.688383 0.489053 1.39037 151 130 101
-1.33562 0.81782 2.23308 129 113 90
-1.30369 0.818374 2.23477 125 103 89
-1.27176 0.818927 2.23645 120 106 97
-1.23983 0.819481 2.23814 136 114 117
-1.2079 0.820035 2.23983 129 109 102
-1.18547 0.826832 2.25866 138 118 111
-1.16254 0.833638 2.27752 136 106 104
-1.13012 0.834201 2.27924 126 108 94
-1.09769 0.834763 2.28095 126 105 88
-0.872 0.693059 1.89192 32 32 30
-0.845225 0.693524 1.89334 33 24 25
-0.824234 0.698516 1.90719 37 29 26
-0.802453 0.703166 1.92011 36 29 23
-0.775333 0.703637 1.92154 41 27 27
-0.753458 0.708644 1.93544 37 27 25
-0.726158 0.709118 1.93689 37 29 27
-0.698859 0.709591 1.93833 47 29 25
-0.681332 0.719508 1.96573 33 29 20
-0.653659 0.719988 1.96719 26 23 16
-0.625986 0.720468 1.96865 33 21 23
-0.60248 0.725504 1.98264 30 27 20
-0.574627 0.725987 1.98412 29 28 24
-0.546775 0.72647 1.98559 35 20 23
-0.522828 0.731869 2.00058 27 22 19
-0.498495 0.737276 2.01559 34 29 26
-0.470255 0.737766 2.01709 32 24 21
-0.442016 0.738255 2.01858 40 33 25
-0.413777 0.738745 2.02007 39 32 22
-0.388476 0.744168 2.03514 35 22 14
-0.360043 0.744661 2.03664 39 25 22
-0.33161 0.745154 2.03814 37 27 25
-0.300819 0.740704 2.02605 53 36 28
-0.325298 0.861686 2.35906 53 39 36
-0.292345 0.862258 2.3608 78 47 45
-0.259392 0.862829 2.36254 70 62 49
-0.228589 0.870128 2.3828 75 51 49
-0.193487 0.863972 2.36603 74 51 43
-0.160534 0.864544 2.36777 83 56 49
-0.127581 0.865115 2.36951 77 57 48
-0.0946277 0.865687 2.37126 78 57 40
-0.0616748 0.866258 2.373 91 68 60
-0.0292956 0.873584 2.39334 95 69 54
0.00391994 0.87416 2.39509 101 78 72
0.0371355 0.874736 2.39685 94 75 60
0.0701369 0.868544 2.37997 94 66 54
0.103567 0.875888 2.40036 85 61 49
0.136043 0.869687 2.38346 80 55 48
0.169998 0.87704 2.40388 65 50 45
0.201949 0.87083 2.38694 31 27 28
0.21569 0.785976 2.15336 25 20 17
0.237049 0.755015 2.06822 33 27 27
0.258029 0.730813 2.00168 34 28 30
0.284224 0.655788 1.79523 55 45 36
0.302644 0.64151 1.75601 59 43 56
0.320257 0.627931 1.71871 49 39 40
0.336968 0.614691 1.68234 54 43 39
0.348237 0.593169 1.62313 73 57 58
0.346147 0.55112 1.50734 141 127 98
0.360251 0.54104 1.47965 168 144 118
0.37704 0.536347 1.46681 163 140 109
0.39024 0.526963 1.44104 171 150 129
0.404515 0.52009 1.42219 181 160 141
0.41851 0.513568 1.4043 179 160 128
0.435721 0.51173 1.39933 174 152 129
0.449147 0.505554 1.38239 176 156 121
0.463968 0.501539 1.37141 190 166 138
0.478457 0.497518 1.36042 186 166 133
0.494672 0.495663 1.35539 180 159 130
0.512862 0.495978 1.35635 176 160 126
0.528829 0.494119 1.35132 180 157 126
0.545014 0.492619 1.34727 173 148 117
0.563052 0.492932 1.34822 168 146 122
0.581091 0.493245 1.34918 170 148 125
0.599129 0.493558 1.35013 165 137 113
0.617168 0.49387 1.35109 158 129 97
0.635206 0.494183 1.35204 157 135 111
0.65044 0.492311 1.34696 165 142 110
0.668395 0.492623 1.34791 157 137 113
-1.33606 0.849727 2.23097 113 91 77
-1.29363 0.843805 2.21559 112 90 79
-1.2722 0.850834 2.23435 112 95 69
-1.23027 0.844904 2.21894 111 84 67
-1.19859 0.845454 2.22061 110 81 77
-1.17641 0.852495 2.23942 112 87 65
-1.14448 0.853049 2.2411 114 96 84
-1.11255 0.853603 2.24279 106 86 77
-1.08062 0.854157 2.24448 113 84 80
-0.866698 0.715475 1.8787 40 29 35
-0.851562 0.724983 1.90399 38 26 26
-0.829948 0.729796 1.91689 36 29 36
-0.802828 0.730267 1.91832 36 28 26
-0.775709 0.730737 1.91975 40 28 32
-0.759082 0.740641 1.9461 30 24 26
-0.73706 0.746201 1.96098 39 30 25
-0.709387 0.746681 1.96244 38 27 23
-0.681715 0.747161 1.9639 34 30 31
-0.654042 0.747641 1.96537 38 28 27
-0.626369 0.74812 1.96683 35 31 28
-0.602865 0.753336 1.98081 38 30 28
-0.575013 0.753819 1.98228 32 23 28
-0.54716 0.754302 1.98375 24 23 21
-0.523217 0.759895 1.99873 44 34 32
-0.498886 0.765495 2.01373 39 27 31
-0.470646 0.765985 2.01522 44 37 31
-0.445735 0.771595 2.03025 29 25 16
-0.417302 0.772088 2.03176 29 25 14
-0.388869 0.772581 2.03326 34 23 19
-0.363184 0.778204 2.04833 35 29 31
-0.334557 0.7787 2.04985 28 25 16
-0.349265 0.873496 2.30079 61 37 33
-0.319872 0.880663 2.31998 63 43 36
-0.287445 0.881226 2.32169 73 50 42
-0.255017 0.881788 2.32341 63 46 38
-0.222589 0.88235 2.32512 74 54 47
-0.190162 0.882913 2.32684 75 56 41
-0.156192 0.876845 2.311 81 63 51
-0.124013 0.877403 2.3127 80 58 47
-0.0928786 0.8846 2.33198 86 59 52
-0.0604509 0.885162 2.3337 87 59 56
-0.0280233 0.885724 2.33541 92 70 56
0.00440442 0.886287 2.33713 98 73 68
0.0368321 0.886849 2.33884 95 72 54
0.0692598 0.887411 2.34056 96 70 57
0.101687 0.887974 2.34227 90 71 57
0.134115 0.888536 2.34399 81 62 47
0.165597 0.882425 2.32802 58 49 44
0.197776 0.882983 2.32972 41 36 30
0.228511 0.876858 2.31372 42 28 28
0.239288 0.793829 2.09391 24 25 19
0.259158 0.763477 2.01366 31 27 28
0.277463 0.735316 1.93921 41 32 27
0.281175 0.672876 1.77388 49 33 33
0.300819 0.661751 1.74455 50 39 43
0.318301 0.64763 1.70728 45 35 36
0.336651 0.637592 1.68083 59 36 42
0.349458 0.618213 1.62959 56 47 38
0.359777 0.59694 1.57333 62 44 44
0.359974 0.561068 1.47833 154 138 115
0.375139 0.553564 1.45856 161 139 126
0.389971 0.546425 1.43976 165 145 121
0.40113 0.534783 1.40901 166 148 126
0.416606 0.530243 1.39709 172 154 132
0.428559 0.521574 1.37422 182 155 138
0.441657 0.515144 1.35728 186 166 133
0.458039 0.513209 1.35227 177 164 132
0.472611 0.509394 1.34227 183 162 145
0.486878 0.505573 1.33225 173 153 126
0.502625 0.503627 1.3272 170 155 124
0.518205 0.501678 1.32215 178 156 133
0.534004 0.500102 1.31809 171 150 121
0.549665 0.498525 1.31402 173 152 121
0.567247 0.49883 1.31495 174 146 125
0.586958 0.501021 1.32089 168 153 112
0.60461 0.501327 1.32182 156 138 114
0.619994 0.499744 1.31774 112 90 67
0.637576 0.500049 1.31867 143 116 95
0.662855 0.506405 1.33568 156 129 99
-1.32575 0.874915 2.21182 107 89 77
-1.27423 0.862763 2.18128 106 85 64
-1.24302 0.863305 2.18293 113 85 81
-1.20236 0.857487 2.16844 121 86 84
-1.17138 0.858025 2.17008 109 93 77
-1.14939 0.864928 2.18788 120 78 62
-1.10943 0.859099 2.17336 110 93 85
-1.08696 0.866011 2.19118 112 85 76
-1.06403 0.872931 2.20903 117 80 71
-0.860918 0.737183 1.86455 37 27 26
-0.851935 0.751918 1.90221 45 35 33
-0.824981 0.752385 1.90364 28 25 18
-0.808813 0.762257 1.92896 34 30 27
-0.781513 0.762731 1.9304 40 31 24
-0.754214 0.763204 1.93184 37 27 35
-0.742513 0.778754 1.97161 25 25 17
-0.71466 0.779237 1.97308 33 24 17
-0.686808 0.77972 1.97455 29 17 17
-0.658955 0.780203 1.97603 31 21 19
-0.631103 0.780686 1.9775 35 26 29
-0.607743 0.786462 1.99243 31 21 22
-0.579697 0.786948 1.99392 43 29 26
-0.551651 0.787435 1.9954 35 26 19
-0.527516 0.793224 2.01038 34 22 22
-0.502995 0.799021 2.02537 34 21 15
-0.471037 0.794204 2.01336 33 28 22
-0.44946 0.805321 2.0419 35 21 20
-0.42397 0.811134 2.05695 32 21 25
-0.39515 0.811634 2.05848 30 22 11
-0.36358 0.80681 2.04645 34 25 28
-0.33751 0.812633 2.06152 30 29 25
-0.308691 0.813133 2.06305 59 37 26
-0.311952 0.892495 2.26544 71 46 42
-0.280271 0.893044 2.26711 74 55 41
-0.24859 0.893594 2.26879 74 51 43
-0.216908 0.894143 2.27047 73 50 44
-0.185227 0.894693 2.27214 84 61 53
-0.153546 0.895242 2.27382 76 53 45
-0.121865 0.895791 2.27549 96 69 58
-0.0901833 0.896341 2.27717 83 65 55
-0.0585021 0.89689 2.27884 98 74 64
-0.0273713 0.904336 2.2981 96 72 70
0.00486044 0.897989 2.28219 91 67 55
0.0364888 0.905443 2.30148 96 69 60
0.068223 0.899088 2.28555 94 70 60
0.0994842 0.893107 2.27056 91 73 51
0.131585 0.900186 2.2889 82 54 51
0.162377 0.894198 2.27389 91 64 57
0.194948 0.901285 2.29225 75 56 49
0.225269 0.895289 2.27722 64 43 38
0.256716 0.895834 2.27888 24 15 18
0.260174 0.796141 2.02464 36 31 27
0.277095 0.761905 1.93746 39 35 24
0.295585 0.739206 1.87972 36 31 28
0.300489 0.685578 1.74298 63 45 45
0.316512 0.66744 1.69686 54 40 39
0.334743 0.657013 1.67042 52 38 37
0.349151 0.640382 1.62813 52 43 34
0.361116 0.621406 1.57983 56 41 44
0.370826 0.600856 1.52751 76 61 56
0.37649 0.576016 1.4642 139 123 100
0.38798 0.563171 1.43153 164 147 129
0.399049 0.551086 1.40081 160 145 124
0.411421 0.542092 1.37797 168 151 131
0.42313 0.533088 1.35511 171 153 133
0.43779 0.528738 1.34414 183 166 138
0.450858 0.522826 1.32917 179 159 124
0.464798 0.518464 1.31817 172 157 124
0.480806 0.516823 1.31412 163 138 108
0.498457 0.517129 1.31506 172 155 127
0.516109 0.517435 1.31599 182 158 120
0.529535 0.513448 1.30594 183 157 130
0.545045 0.511798 1.30186 176 155 124
0.560416 0.510146 1.29778 181 156 136
0.575224 0.508101 1.2927 168 138 127
0.595138 0.510749 1.29962 170 146 112
0.614765 0.513007 1.30555 120 108 92
0.629861 0.511351 1.30146 120 107 90
0.65203 0.515572 1.31241 122 104 90
-1.29572 0.88683 2.16149 113 83 83
-1.25482 0.880782 2.14703 114 86 82
-1.22408 0.881315 2.14865 122 94 90
-1.19334 0.881848 2.15028 119 100 93
-1.14525 0.869963 2.12154 122 95 74
-1.13185 0.882914 2.15353 106 83 69
-1.10111 0.883448 2.15516 115 91 79
-1.06236 0.87776 2.14156 107 88 58
-1.03184 0.878289 2.14318 105 84 65
-0.884939 0.783056 1.91044 35 26 31
-0.857819 0.783527 1.91188 41 32 33
-0.830699 0.783997 1.91331 38 28 26
-0.809191 0.789537 1.92716 37 25 27
-0.781891 0.790011 1.9286 24 18 18
-0.765499 0.801027 1.95587 35 25 15
-0.742898 0.806586 1.96977 33 29 20
-0.715046 0.807069 1.97124 31 22 23
-0.687193 0.807552 1.97272 35 28 20
-0.659341 0.808035 1.97419 38 24 24
-0.636177 0.814001 1.9891 33 28 22
-0.608131 0.814488 1.99059 33 24 25
-0.584386 0.820464 2.00553 40 26 25
-0.556147 0.820954 2.00702 30 20 19
-0.531821 0.82694 2.022 28 27 22
-0.507109 0.832934 2.03699 35 24 22
-0.482009 0.838934 2.052 31 27 24
-0.453189 0.839433 2.05353 31 29 16
-0.424369 0.839933 2.05505 33 31 19
-0.395549 0.840433 2.05658 31 27 24
-0.366729 0.840933 2.0581 39 30 35
-0.340652 0.847347 2.07415 36 27 30
-0.311624 0.847851 2.07568 55 41 32
-0.304477 0.904019 2.21391 75 60 53
-0.2735 0.904556 2.21555 70 58 36
-0.242524 0.905094 2.21719 89 59 61
-0.211548 0.905631 2.21882 64 47 31
-0.177275 0.893108 2.18837 90 68 47
-0.144001 0.880966 2.15885 37 34 25
-0.112768 0.875148 2.14486 38 29 20
-0.0847802 0.888353 2.17762 19 15 12
-0.0551947 0.895225 2.19483 64 55 38
-0.02569 0.908854 2.22865 90 69 48
0.00499814 0.916143 2.2469 94 72 59
0.0362626 0.909928 2.23193 91 72 55
0.0672389 0.910465 2.23357 101 78 60
0.0982152 0.911002 2.23521 92 66 49
0.129192 0.91154 2.23684 84 66 44
0.160168 0.912077 2.23848 86 68 56
0.191144 0.912614 2.24012 80 57 49
0.22212 0.913151 2.24176 74 50 46
0.251505 0.906904 2.22669 52 50 37
0.276726 0.788494 1.93571 37 33 24
0.292121 0.75577 1.85537 38 29 34
0.314726 0.687001 1.68646 49 41 20
0.331249 0.67258 1.65116 59 50 43
0.347321 0.659345 1.61877 57 47 38
0.362452 0.646093 1.58633 63 49 46
0.373809 0.627608 1.54098 42 34 45
0.38433 0.609904 1.49754 69 52 44
0.387712 0.582536 1.43026 142 125 107
0.39723 0.567597 1.39361 158 137 116
0.409524 0.558271 1.3708 163 147 131
0.421155 0.548933 1.34795 168 151 123
0.434229 0.542403 1.33202 177 152 132
0.445259 0.533849 1.31109 133 54 60
0.461267 0.53214 1.30705 143 44 38
0.47337 0.52599 1.29205 132 27 34
0.490731 0.526291 1.29297 126 94 69
0.505872 0.524168 1.2879 169 147 124
0.519311 0.520427 1.27884 166 149 121
0.536451 0.520724 1.27974 173 152 133
0.551533 0.518998 1.27565 169 148 129
0.566477 0.51727 1.27155 182 153 123
0.585675 0.51959 1.27746 168 147 126
0.598216 0.515833 1.26834 164 144 120
0.612814 0.514099 1.26423 116 98 88
0.636887 0.520478 1.28017 91 76 69
-1.28599 0.910968 2.14338 111 85 84
-1.2459 0.905083 2.12987 115 88 77
-1.20626 0.899189 2.11634 121 98 64
-1.16706 0.893288 2.10278 117 88 70
-1.12831 0.88738 2.0892 122 99 85
-1.10691 0.894331 2.10596 108 96 72
-1.07683 0.894853 2.10755 118 91 72
-1.04675 0.895375 2.10914 113 86 69
-1.01667 0.895896 2.11074 115 88 69
-0.957727 0.871829 2.05427 51 35 35
-0.858194 0.810627 1.91009 35 27 16
-0.836868 0.816344 1.92392 39 30 21
-0.815182 0.822067 1.93776 36 26 25
-0.787703 0.822543 1.93921 37 28 29
-0.771136 0.833935 1.96646 41 31 22
-0.743284 0.834418 1.96794 29 25 16
-0.720703 0.840568 1.9828 38 29 30
-0.687579 0.835384 1.97088 29 25 22
-0.664611 0.841541 1.98577 42 31 27
-0.636565 0.842027 1.98725 34 30 18
-0.608519 0.842514 1.98874 31 22 23
-0.584777 0.848683 2.00367 40 27 21
-0.556538 0.849173 2.00516 46 31 28
-0.536132 0.861043 2.03359 39 34 28
-0.511228 0.867233 2.04858 35 26 21
-0.482408 0.867733 2.05011 34 28 28
-0.453588 0.868233 2.05163 36 25 19
-0.428136 0.874844 2.06763 37 26 20
-0.395948 0.869232 2.05468 32 20 20
-0.373033 0.881969 2.08519 31 21 20
-0.343799 0.882475 2.08674 34 27 19
-0.322178 0.901359 2.13184 65 46 39
-0.297293 0.914952 2.16441 66 47 40
-0.266994 0.915477 2.16601 93 66 45
-0.238738 0.922548 2.18313 87 73 60
-0.204573 0.909979 2.15368 103 76 47
-0.172894 0.903948 2.13973 76 50 35
-0.14045 0.892171 2.11214 44 36 33
-0.111008 0.892682 2.1137 46 37 30
-0.082445 0.899347 2.12986 50 29 26
-0.0534675 0.906019 2.14605 90 62 50
-0.0246016 0.919681 2.17883 110 76 64
0.00597161 0.91363 2.16482 101 79 55
0.0359964 0.920731 2.18204 102 78 78
0.0662954 0.921257 2.18364 86 65 62
0.0965944 0.921782 2.18524 94 79 56
0.126893 0.922308 2.18684 101 77 65
0.157192 0.922833 2.18845 86 66 55
0.187491 0.923359 2.19005 92 66 49
0.21779 0.923884 2.19165 81 62 55
0.248089 0.924409 2.19325 69 51 49
0.273347 0.905516 2.14868 36 25 23
0.294872 0.790727 1.87633 39 34 28
0.310686 0.763444 1.81172 41 33 31
0.314407 0.71004 1.68494 48 39 40
0.329526 0.691794 1.64178 56 46 45
0.347015 0.681403 1.61731 55 41 41
0.362153 0.667682 1.5849 60 47 41
0.373519 0.648548 1.53959 57 45 47
0.385902 0.633545 1.50411 59 49 50
0.392353 0.610213 1.44878 83 71 49
0.395413 0.583943 1.38642 156 140 124
0.407629 0.574284 1.36363 157 140 120
0.416025 0.560034 1.32989 166 151 120
0.427363 0.551182 1.309 101 33 44
0.439981 0.54482 1.29404 139 43 45
0.453798 0.540535 1.28402 150 37 31
0.469365 0.538749 1.27996 151 38 44
0.484794 0.53696 1.27589 142 39 42
0.500084 0.535169 1.27182 163 152 122
0.513318 0.531285 1.26275 180 157 123
0.528263 0.529488 1.25866 174 143 123
0.54307 0.527688 1.25456 177 151 124
0.559864 0.527979 1.25544 179 157 133
0.574464 0.526176 1.25133 174 151 133
0.591189 0.526466 1.25222 176 155 128
0.605581 0.524659 1.24809 180 154 137
0.622237 0.524948 1.24898 155 135 102
-1.25771 0.92178 2.09603 99 82 56
-1.22764 0.922301 2.09762 107 82 62
-1.18843 0.916179 2.08408 116 89 70
-1.15023 0.910465 2.07146 121 92 76
-1.1043 0.898508 2.04461 126 91 89
-1.083 0.905254 2.06038 118 85 70
-1.05356 0.905765 2.06194 123 95 84
-1.02412 0.906275 2.06349 118 94 84
-0.994676 0.906786 2.06505 113 90 76
-0.958131 0.901043 2.05234 39 31 18
-0.864545 0.84315 1.92067 34 25 28
-0.843042 0.84905 1.9345 36 28 25
-0.815562 0.849526 1.93595 36 27 30
-0.793938 0.855853 1.95076 43 33 32
-0.771522 0.861768 1.96463 33 23 21
-0.74367 0.862251 1.9661 36 29 13
-0.721091 0.868594 1.98096 46 31 36
-0.693045 0.86908 1.98244 36 26 17
-0.664999 0.869567 1.98392 42 31 29
-0.636953 0.870053 1.98541 38 25 19
-0.617907 0.882286 2.01374 36 26 17
-0.593781 0.888656 2.02868 23 18 12
-0.565154 0.889153 2.03019 29 24 20
-0.540447 0.895533 2.04516 32 19 26
-0.511627 0.896033 2.04668 31 23 20
-0.490377 0.909154 2.07708 32 22 23
-0.457565 0.903347 2.06418 30 23 17
-0.431908 0.910168 2.08017 28 24 21
-0.402673 0.910675 2.08172 36 25 29
-0.376394 0.917508 2.09775 38 28 26
-0.346952 0.918018 2.09931 56 41 20
-0.32005 0.924861 2.11537 78 48 40
-0.292734 0.931712 2.13145 102 73 67
-0.262878 0.93223 2.13303 97 75 51
-0.231102 0.926404 2.12007 107 81 64
-0.201453 0.926918 2.12164 61 45 30
-0.1703 0.921082 2.10865 53 33 34
-0.139561 0.915238 2.09564 34 23 21
-0.111416 0.922103 2.11176 34 24 15
-0.0810915 0.916252 2.09873 38 28 18
-0.0518568 0.916759 2.10027 118 80 57
-0.0235568 0.930003 2.13105 110 95 56
0.00635251 0.924145 2.11799 93 65 41
0.0357945 0.924655 2.11955 48 30 18
0.0653912 0.931545 2.13575 106 83 75
0.0954026 0.938443 2.15198 84 61 55
0.12469 0.932574 2.13889 94 68 69
0.154339 0.933088 2.14045 97 77 68
0.183005 0.927208 2.12733 90 76 49
0.213638 0.934116 2.14359 82 60 47
0.243287 0.93463 2.14516 77 48 53
0.272937 0.935144 2.14673 64 51 43
0.300773 0.92925 2.13356 28 21 13
0.295997 0.821189 1.88544 38 30 28
0.311976 0.792984 1.8209 48 36 38
0.32659 0.76603 1.75922 40 36 25
0.329216 0.714212 1.6403 59 51 38
0.343479 0.696179 1.5991 53 42 40
0.360223 0.685842 1.57558 69 51 51
0.37497 0.672919 1.54611 64 48 48
0.390712 0.663414 1.5245 51 38 29
0.397232 0.638871 1.46825 72 47 51
0.405 0.619025 1.42279 75 65 55
0.405736 0.590131 1.35647 148 127 106
0.414342 0.575826 1.32375 160 144 121
0.425616 0.566669 1.30287 95 34 29
0.438167 0.560085 1.28792 145 56 58
0.450277 0.553493 1.27295 157 89 90
0.460576 0.545169 1.25398 110 58 62
0.477439 0.545462 1.25487 43 26 19
0.490606 0.541439 1.24581 51 49 26
0.505413 0.53957 1.24171 164 150 124
0.520083 0.537699 1.23761 169 154 121
0.53667 0.537987 1.23849 168 154 105
0.551557 0.536544 1.23537 177 160 117
0.565895 0.534667 1.23125 171 152 122
0.582357 0.534953 1.23212 180 152 130
0.594155 0.530906 1.22298 172 144 123
0.612881 0.533357 1.22885 161 143 119
-1.24856 0.944979 2.07895 94 75 33
-1.20994 0.939065 2.06637 97 64 59
-1.16318 0.926708 2.03959 106 78 57
-1.1256 0.920776 2.02696 105 84 65
-1.09657 0.921279 2.02849 112 91 60
-1.06754 0.921782 2.03003 116 88 76
-1.03851 0.922286 2.03156 124 98 81
-1.00197 0.916336 2.01887 118 95 77
-0.973146 0.916835 2.0204 113 96 70
-0.937695 0.911305 2.00862 72 55 47
-0.870901 0.876032 1.93123 47 38 33
-0.849666 0.882546 1.946 31 26 20
-0.821994 0.883026 1.94747 33 23 24
-0.79976 0.889117 1.96132 29 24 21
-0.783235 0.901694 1.98949 33 28 22
-0.749525 0.896133 1.97762 26 22 23
-0.732033 0.908727 2.00585 31 26 20
-0.7036 0.90922 2.00735 37 26 24
-0.675167 0.909713 2.00886 34 26 24
-0.65143 0.916269 2.02376 25 25 13
-0.622804 0.916766 2.02527 35 25 24
-0.598486 0.923332 2.04021 34 34 26
-0.569666 0.923832 2.04173 46 30 31
-0.545049 0.930843 2.05766 54 41 35
-0.516021 0.931346 2.0592 61 50 44
-0.486994 0.93185 2.06073 66 52 52
-0.457967 0.932353 2.06227 75 60 53
-0.428939 0.932856 2.0638 86 71 64
-0.399912 0.93336 2.06534 98 74 64
-0.370885 0.933863 2.06687 99 73 56
-0.341857 0.934367 2.06841 109 80 64
-0.31283 0.93487 2.06994 113 87 60
-0.283803 0.935373 2.07148 110 77 72
-0.256904 0.942424 2.08752 114 87 58
-0.22767 0.942931 2.08907 109 85 61
-0.196721 0.936883 2.07608 110 83 66
-0.167693 0.937387 2.07762 100 77 61
-0.139966 0.944452 2.09371 80 65 34
-0.109639 0.938393 2.08069 76 68 49
-0.0806113 0.938897 2.08222 71 54 44
-0.051584 0.9394 2.08376 58 46 32
-0.0230269 0.946479 2.09989 58 49 44
0.00647064 0.940407 2.08683 54 42 28
0.035498 0.94091 2.08836 55 35 44
0.0646771 0.948 2.10453 109 82 75
0.0939118 0.948507 2.10608 95 73 59
0.123146 0.949014 2.10762 88 72 39
0.151607 0.942924 2.0945 104 82 69
0.180635 0.943427 2.09604 102 74 62
0.209662 0.943931 2.09757 86 64 66
0.240085 0.951042 2.11381 85 61 61
0.267717 0.944937 2.10065 78 59 42
0.296744 0.945441 2.10218 52 36 36
0.31163 0.817971 1.81925 30 25 22
0.32804 0.794992 1.76845 38 27 31
0.327321 0.732652 1.62997 51 40 34
0.343177 0.718003 1.59766 54 46 35
0.358297 0.703781 1.56628 62 51 45
0.372939 0.690428 1.53683 59 48 46
0.388574 0.680604 1.51524 52 41 39
0.402103 0.668109 1.48768 62 50 38
0.406286 0.640968 1.42745 53 47 35
0.413664 0.621783 1.38494 106 97 66
0.415527 0.595919 1.32752 98 87 69
0.422068 0.579353 1.29082 96 30 31
0.434471 0.572545 1.27587 124 29 25
0.446759 0.566175 1.2619 158 96 101
0.458633 0.559797 1.2479 172 123 127
0.473649 0.557862 1.24382 138 82 95
0.486679 0.553699 1.23476 34 24 22
0.501733 0.552204 1.23166 159 139 112
0.516279 0.550262 1.22755 163 146 103
0.528632 0.546087 1.21846 174 159 116
0.543257 0.544585 1.21533 179 159 132
0.555578 0.540848 1.20721 174 149 118
0.569461 0.538894 1.20307 163 143 110
0.585536 0.539173 1.20392 175 147 136
0.599692 0.537663 1.20076 173 137 121
-1.24897 0.974814 2.07698 82 63 56
-1.18405 0.948775 2.02197 90 66 62
-1.15502 0.949279 2.02351 116 86 76
-1.10205 0.930729 1.98443 113 87 70
-1.06602 0.925016 1.9727 122 96 71
-1.0526 0.937925 2.00068 112 85 56
-1.01676 0.932209 1.98894 117 90 83
-0.988323 0.932702 1.99044 128 92 78
-0.953063 0.926975 1.97867 115 96 82
-0.931457 0.933688 1.99345 110 84 69
-0.896584 0.927954 1.98166 75 56 42
-0.85585 0.915984 1.95654 24 17 7
-0.827998 0.916467 1.95801 38 27 21
-0.800145 0.91695 1.95948 60 46 35
-0.783626 0.929913 1.98763 49 38 34
-0.760859 0.936646 2.00247 74 58 43
-0.732426 0.937139 2.00397 71 54 44
-0.703993 0.937632 2.00548 85 70 49
-0.67556 0.938125 2.00698 101 74 65
-0.647128 0.938618 2.00849 102 77 70
-0.618695 0.939111 2.00999 101 78 72
-0.590262 0.939604 2.01149 104 81 67
-0.561829 0.940097 2.013 119 88 85
-0.53732 0.946861 2.02793 113 89 61
-0.512425 0.953631 2.04288 116 87 69
-0.483605 0.954131 2.04441 119 94 63
-0.454785 0.954631 2.04593 122 94 83
-0.422815 0.948847 2.03399 117 88 82
-0.397145 0.95563 2.04898 111 85 72
-0.360034 0.937258 2.01003 125 97 73
-0.334365 0.944042 2.02503 111 85 72
-0.308309 0.950832 2.04004 117 89 68
-0.281865 0.957629 2.05508 116 88 64
-0.251056 0.951825 2.04307 114 80 70
-0.220633 0.946014 2.03104 114 81 66
-0.193803 0.952818 2.0461 115 77 68
-0.165176 0.953314 2.04761 111 87 63
-0.13655 0.953811 2.04913 116 84 71
-0.107923 0.954307 2.05064 106 79 70
-0.0784683 0.948479 2.03856 109 74 72
-0.0500354 0.948973 2.04006 102 74 52
-0.0224855 0.962127 2.0688 106 75 72
0.00658252 0.956293 2.0567 99 78 59
0.035209 0.956789 2.05821 108 82 65
0.0638355 0.957286 2.05972 107 78 62
0.092462 0.957782 2.06124 104 78 63
0.121088 0.958279 2.06275 94 80 54
0.149715 0.958775 2.06427 98 74 62
0.177428 0.952917 2.05209 102 78 74
0.205861 0.95341 2.0536 100 72 60
0.235594 0.960264 2.06881 99 69 69
0.264221 0.960761 2.07032 78 59 53
0.292847 0.961257 2.07184 78 53 48
0.323354 0.968124 2.08709 30 19 17
0.314543 0.852975 1.83921 39 32 26
0.325922 0.814236 1.75604 42 37 34
0.344768 0.80098 1.72782 46 38 27
0.339651 0.732075 1.57949 60 41 37
0.354745 0.717848 1.54912 60 47 54
0.370911 0.707716 1.52757 57 43 40
0.388289 0.701226 1.51388 56 47 42
0.400109 0.685132 1.47943 57 46 40
0.411192 0.669478 1.44593 60 51 42
0.416675 0.646031 1.39557 60 46 43
0.425302 0.629881 1.36096 119 104 85
0.425129 0.601808 1.30056 97 35 36
0.434232 0.589742 1.27474 121 30 39
0.444884 0.580872 1.25582 134 33 23
0.454984 0.571992 1.23687 168 105 98
0.46844 0.568151 1.22882 180 104 114
0.481279 0.563846 1.21976 112 95 77
0.494224 0.559996 1.21168 147 127 103
0.506921 0.556141 1.20358 174 156 120
0.521012 0.554122 1.19946 171 157 122
0.537087 0.554401 1.20031 180 156 132
0.549217 0.550536 1.19218 174 155 122
0.563359 0.548971 1.18903 180 155 133
0.576925 0.546942 1.18488 184 155 123
0.590832 0.545372 1.18172 173 151 130
-1.22246 0.984121 2.03265 100 71 63
-1.17568 0.970936 2.00593 113 83 75
-1.13088 0.958649 1.98105 116 85 80
-1.10245 0.959142 1.98255 116 87 69
-1.05881 0.946835 1.95761 118 84 59
-1.02335 0.940918 1.94586 128 96 75
-1.00272 0.947808 1.96058 124 90 80
-0.967646 0.941884 1.94881 120 89 84
-0.939793 0.942367 1.95028 120 93 76
-0.911941 0.94285 1.95176 119 97 76
-0.878105 0.937372 1.94089 110 89 70
-0.850433 0.937851 1.94236 100 78 64
-0.828383 0.944299 1.95617 120 94 81
-0.795087 0.938811 1.94528 119 86 77
-0.778348 0.951699 1.97245 117 94 76
-0.744826 0.945748 1.96059 117 92 87
-0.716974 0.946231 1.96207 119 92 83
-0.689121 0.946714 1.96354 119 95 71
-0.666164 0.953644 1.97838 129 101 87
-0.638118 0.95413 1.97986 129 94 98
-0.605564 0.948163 1.96796 120 92 81
-0.577712 0.948646 1.96943 121 87 88
-0.55398 0.955589 1.98431 121 88 83
-0.525934 0.956076 1.98579 116 90 77
-0.497888 0.956562 1.98728 123 91 76
-0.469842 0.957048 1.98876 120 89 69
-0.441797 0.957535 1.99024 123 101 64
-0.413751 0.958021 1.99173 120 90 82
-0.385705 0.958507 1.99321 115 86 78
-0.357659 0.958994 1.99469 117 87 79
-0.329613 0.95948 1.99618 118 91 62
-0.301567 0.959966 1.99766 123 93 67
-0.275707 0.966947 2.01265 111 77 75
-0.245475 0.960939 2.00063 115 88 67
-0.217429 0.961425 2.00211 104 77 60
-0.189383 0.961912 2.00359 96 69 62
-0.161337 0.962398 2.00508 110 80 70
-0.13451 0.969395 2.02012 120 89 71
-0.10627 0.969885 2.02161 114 88 75
-0.0771995 0.963857 2.00953 104 72 61
-0.0491536 0.964344 2.01101 100 73 62
-0.0211076 0.96483 2.01249 102 76 61
0.0066876 0.971844 2.02759 109 80 74
0.0349842 0.965803 2.01546 111 83 72
0.0631665 0.972823 2.03057 114 80 79
0.0910761 0.966775 2.01843 104 76 64
0.118599 0.960721 2.00626 101 70 50
0.146451 0.961204 2.00773 94 67 38
0.174303 0.961687 2.0092 108 80 66
0.20326 0.968721 2.02436 104 80 70
0.231306 0.969207 2.02584 93 72 55
