ply
format ascii 1.0
element vertex 1312
property float x
property float y
property float z
property uchar red
property uchar green
property uchar blue
end_header
0.105164 0.222201 2.30488 159 138 119
0.135734 0.221313 2.28969 176 105 113
0.165834 0.220417 2.27448 155 107 103
0.196565 0.221026 2.27627 143 121 97
0.226039 0.220205 2.26202 173 154 124
0.256549 0.220809 2.26379 170 151 121
0.28536 0.219975 2.2495 159 138 119
0.313728 0.219132 2.23519 107 94 78
0.343796 0.219728 2.23694 106 94 80
0.38095 0.22468 2.28701 158 137 116
0.414425 0.226837 2.30592 160 138 115
0.445391 0.227451 2.30772 152 132 107
0.473142 0.226508 2.29237 146 129 101
0.507322 0.228678 2.31133 152 132 107
0.538288 0.229292 2.31313 157 136 105
0.565334 0.228335 2.29774 155 114 108
0.596065 0.228944 2.29953 155 82 93
0.622665 0.228066 2.28511 135 95 95
0.657527 0.230162 2.30311 92 81 61
0.702834 0.235539 2.35665 89 80 73
0.718989 0.23138 2.30669 81 70 66
0.771034 0.238384 2.37759 93 77 64
0.791577 0.235805 2.34485 106 88 68
0.816979 0.234815 2.32936 91 78 62
0.847945 0.235429 2.33117 95 76 69
0.878911 0.236043 2.33297 99 82 74
0.903373 0.235035 2.31743 85 71 62
0.927763 0.234113 2.30288 95 82 63
0.945147 0.231647 2.27196 103 90 82
0.975214 0.232243 2.27371 96 79 71
0.99171 0.229847 2.24373 92 79 71
1.02812 0.231886 2.26082 102 83 77
1.05797 0.232477 2.26256 105 82 74
1.08782 0.233069 2.2643 116 95 68
-1.22271 0.214053 2.09765 138 119 112
-1.21082 0.217337 2.12825 147 126 105
-1.18098 0.217929 2.12999 140 121 104
-1.15113 0.218521 2.13173 139 125 114
-1.12998 0.220566 2.14891 146 125 108
-1.10839 0.22262 2.16612 147 125 114
-1.0781 0.22322 2.16789 139 112 103
-1.06387 0.226755 2.20062 145 126 109
-1.02533 0.225893 2.18691 145 121 109
-1.00241 0.227973 2.2042 143 115 103
-0.979512 0.230155 2.22248 147 123 95
-0.948546 0.230769 2.22428 146 124 113
-0.91758 0.231382 2.22609 137 120 102
-0.893739 0.233583 2.24442 141 120 101
-0.869429 0.235792 2.26279 140 120 95
-0.837993 0.236415 2.26462 142 123 108
-0.812978 0.238639 2.28303 140 121 107
-0.781307 0.239267 2.28487 148 122 105
-0.755937 0.241599 2.30429 139 118 101
-0.73007 0.243941 2.32375 139 115 103
-0.697902 0.244579 2.32562 142 116 99
-0.582112 0.219329 2.06217 28 24 25
-0.553689 0.219893 2.06383 17 13 12
-0.611793 0.250046 2.36752 130 110 83
-0.584189 0.252524 2.38808 129 111 87
-0.551248 0.253177 2.38999 135 114 97
-0.518306 0.25383 2.39191 133 113 89
-0.485364 0.254483 2.39383 135 111 85
-0.460473 0.258839 2.43317 139 116 98
-0.423244 0.257646 2.41639 135 114 95
-0.393539 0.260165 2.43706 133 112 95
-0.360073 0.260829 2.43901 137 111 98
-0.332869 0.265433 2.48048 136 110 93
-0.298849 0.266108 2.48246 130 109 92
-0.26483 0.266782 2.48444 132 109 91
-0.23081 0.267456 2.48642 129 110 77
-0.200944 0.272215 2.52904 126 100 87
-0.164521 0.270803 2.51022 125 105 80
-0.130225 0.271483 2.51222 131 99 84
-0.0959296 0.272162 2.51422 119 96 88
-0.0616338 0.272842 2.51621 120 98 85
-0.028691 0.277764 2.56001 107 89 75
0.00618517 0.278455 2.56204 110 93 83
0.0410613 0.279146 2.56407 104 82 71
0.0755494 0.275561 2.5242 74 57 47
0.10468 0.253371 2.30257 120 71 75
0.132857 0.245595 2.22245 166 122 121
0.160593 0.241469 2.17821 160 125 106
0.190025 0.242053 2.17992 147 131 106
0.218282 0.241088 2.16661 160 139 120
0.253127 0.247979 2.22946 164 144 119
0.27991 0.245359 2.20011 178 157 130
0.307753 0.244386 2.18678 174 152 129
0.33518 0.243405 2.17342 160 141 108
0.362194 0.242416 2.16004 157 136 107
0.391211 0.242991 2.16173 158 139 109
0.430732 0.249873 2.22385 157 130 109
0.4636 0.25215 2.24172 153 132 105
0.493668 0.252746 2.24347 154 132 111
0.527199 0.255037 2.26137 158 138 111
0.553803 0.253938 2.24697 145 119 96
0.576302 0.251233 2.21737 163 132 104
0.602072 0.250219 2.20392 154 131 100
0.627427 0.249197 2.19044 138 122 96
0.656652 0.249776 2.19214 92 75 65
0.694859 0.253583 2.22428 99 82 74
0.73922 0.259239 2.27372 86 74 48
0.774741 0.261569 2.29174 93 80 64
0.794343 0.258705 2.26098 98 85 76
0.813416 0.255933 2.23118 94 76 62
0.848582 0.258154 2.24818 96 82 71
0.884546 0.260493 2.26623 94 80 71
0.896391 0.256053 2.22106 95 72 66
0.931973 0.258282 2.23808 88 78 79
0.948899 0.255569 2.20916 102 87 80
0.978123 0.256148 2.21086 92 71 78
1.00058 0.255068 2.19721 100 82 70
1.0161 0.252428 2.1692 97 82 59
1.04472 0.252996 2.17087 93 76 56
-1.23215 0.24501 2.10989 143 121 108
-1.21129 0.247155 2.12604 142 126 92
-1.19058 0.249413 2.14318 142 120 107
-1.16051 0.250009 2.14494 142 127 106
-1.13045 0.250604 2.14669 139 117 119
-1.11733 0.254559 2.17932 150 123 112
-1.09508 0.256847 2.19655 147 118 110
-1.07289 0.259249 2.21478 149 128 109
-1.03362 0.258065 2.20013 146 122 110
-1.01096 0.260477 2.21838 142 120 109
-0.979991 0.261091 2.22019 146 122 112
-0.956624 0.263516 2.23848 145 123 112
-0.925423 0.264135 2.2403 143 121 107
-0.894223 0.264753 2.24212 142 120 106
-0.876809 0.269023 2.27699 148 121 104
-0.852189 0.271589 2.29636 143 116 95
-0.82027 0.272222 2.29821 136 120 104
-0.788351 0.272855 2.30007 145 120 100
-0.762736 0.275441 2.31949 134 113 92
-0.730568 0.276078 2.32137 136 115 98
-0.6984 0.276716 2.32324 137 111 84
-0.558258 0.249823 2.07543 21 14 21
-0.622983 0.286869 2.40233 118 103 84
-0.589779 0.287527 2.40426 133 110 96
-0.551758 0.286087 2.38755 135 110 90
-0.52337 0.288843 2.40813 131 109 88
-0.494458 0.29161 2.42874 131 106 99
-0.460991 0.292273 2.43069 122 98 86
-0.427524 0.292936 2.43264 132 104 92
-0.394058 0.2936 2.43459 137 110 91
-0.364003 0.296504 2.45626 139 108 88
-0.333396 0.29942 2.47796 127 102 95
-0.302236 0.302347 2.49969 123 106 90
-0.26794 0.303026 2.50169 123 101 87
-0.233644 0.303706 2.50369 128 97 94
-0.20148 0.306768 2.52648 118 100 78
-0.166894 0.307453 2.52849 124 93 90
-0.132308 0.308139 2.53051 112 100 86
-0.0977222 0.308824 2.53252 123 98 91
-0.0631362 0.30951 2.53453 118 95 81
-0.0299122 0.315017 2.5783 110 91 74
0.00525413 0.315714 2.58035 105 86 79
0.0404205 0.316411 2.5824 101 83 81
0.0750182 0.309824 2.52166 46 35 29
0.106641 0.296943 2.40697 41 26 29
0.132978 0.277492 2.2362 141 112 104
0.15938 0.269126 2.16104 156 138 116
0.186676 0.266204 2.13275 171 153 133
0.213298 0.263499 2.10642 156 135 114
0.241722 0.264062 2.10807 152 135 117
0.270145 0.264625 2.10973 111 96 89
0.300242 0.266838 2.12542 152 136 111
0.330726 0.269059 2.14114 172 152 119
0.357475 0.267972 2.12876 173 149 125
0.383838 0.266879 2.11635 170 148 124
0.407366 0.264112 2.08983 159 147 123
0.432761 0.262999 2.07736 152 115 96
0.471942 0.270241 2.13542 125 86 69
0.516565 0.279669 2.21172 134 106 94
0.5393 0.276656 2.18317 140 111 105
0.564866 0.275431 2.16972 131 94 76
0.593884 0.276006 2.17141 111 39 27
0.615026 0.273077 2.14375 167 131 95
0.635652 0.270253 2.11707 146 129 101
0.663881 0.270813 2.11871 131 112 97
0.687729 0.269669 2.10616 95 80 61
0.743873 0.28071 2.19508 106 86 87
0.773098 0.28129 2.19678 101 82 84
0.791688 0.278195 2.16799 96 84 68
0.810186 0.275329 2.14118 84 75 60
0.849309 0.279337 2.17134 104 84 85
0.878119 0.279908 2.17302 102 90 74
0.895456 0.277019 2.14614 111 95 72
0.923879 0.277582 2.1478 101 81 83
0.940056 0.27467 2.12085 95 76 69
0.974409 0.276967 2.1368 89 71 61
1.00264 0.277527 2.13844 121 105 90
1.03757 0.279835 2.15442 92 76 61
-1.2416 0.276381 2.1221 143 123 112
-1.21175 0.276973 2.12383 141 119 105
-1.19105 0.279451 2.14096 139 117 106
-1.16098 0.280047 2.14271 143 119 109
-1.13091 0.280643 2.14446 151 122 106
-1.11781 0.285039 2.17706 144 124 99
-1.09556 0.287548 2.19428 142 117 95
-1.06483 0.288157 2.19607 140 121 104
-1.0424 0.290799 2.21429 137 118 101
-1.01144 0.291413 2.21609 146 118 107
-0.988308 0.294068 2.23435 140 119 100
-0.957107 0.294687 2.23617 132 109 101
-0.933274 0.297356 2.25447 134 110 100
-0.901838 0.29798 2.25631 129 112 94
-0.8773 0.300663 2.27465 135 107 86
-0.852684 0.303478 2.29399 128 106 93
-0.820765 0.30411 2.29585 124 105 88
-0.795402 0.30694 2.31524 121 102 88
-0.763234 0.307577 2.31711 127 100 93
-0.731067 0.308215 2.31898 116 97 91
-0.704709 0.311064 2.33843 109 94 75
-0.57434 0.272673 2.03061 23 19 16
-0.558702 0.278412 2.07331 19 18 14
-0.618151 0.317691 2.38128 86 73 65
-0.58521 0.318344 2.3832 95 73 60
-0.557089 0.321357 2.40374 93 77 61
-0.519326 0.31965 2.38703 85 66 60
-0.490681 0.322673 2.40761 82 68 57
-0.46151 0.325707 2.42821 80 65 60
-0.428043 0.326371 2.43016 84 72 58
-0.398269 0.329546 2.45179 125 103 79
-0.364526 0.330215 2.45376 121 103 81
-0.333923 0.333406 2.47544 131 102 86
-0.302767 0.336609 2.49716 131 102 94
-0.268471 0.337289 2.49915 130 103 86
-0.236602 0.340635 2.5219 123 104 87
-0.202016 0.34132 2.52392 122 99 93
-0.16743 0.342006 2.52593 117 101 76
-0.132844 0.342691 2.52795 117 94 78
-0.0995237 0.346066 2.55078 112 88 78
-0.0646476 0.346757 2.55281 112 93 78
-0.0304569 0.350149 2.5757 115 93 82
0.00470942 0.350846 2.57775 105 88 78
0.0398757 0.351543 2.57979 94 77 70
0.0744869 0.344086 2.51912 46 29 35
0.105705 0.327126 2.38562 40 30 31
0.131926 0.305672 2.218 134 121 105
0.156715 0.292591 2.11497 167 152 123
0.184435 0.291331 2.10266 177 156 135
0.209586 0.286401 2.06233 169 151 127
0.238713 0.288788 2.07796 165 145 120
0.265272 0.287504 2.06557 151 134 108
0.291563 0.286345 2.05417 104 90 77
0.320958 0.288608 2.06882 139 122 96
0.348801 0.28916 2.07044 160 140 115
0.376644 0.289712 2.07206 171 151 126
0.404487 0.290264 2.07368 172 151 124
0.427241 0.287225 2.04814 167 152 119
0.452082 0.286037 2.03665 153 129 103
0.479372 0.286577 2.03824 125 96 80
0.509651 0.288858 2.05294 111 63 49
0.547113 0.2949 2.09592 114 50 40
0.578755 0.297337 2.11169 130 84 71
0.603186 0.296011 2.09918 152 128 102
0.62723 0.294678 2.08665 152 133 100
0.647 0.29158 2.06094 154 126 104
0.670403 0.290364 2.04937 135 120 89
0.697693 0.290905 2.05096 123 109 83
0.743367 0.29879 2.10735 104 84 77
0.776363 0.301253 2.1232 114 99 80
0.789502 0.296214 2.08317 100 87 81
0.82213 0.298541 2.098 86 81 61
0.861053 0.302932 2.12813 96 84 70
0.872492 0.297859 2.088 108 87 82
0.900155 0.298407 2.08961 100 89 69
0.927818 0.298955 2.09122 93 80 74
0.949168 0.297569 2.07854 111 95 80
0.970595 0.296313 2.06685 93 73 62
1.01081 0.3006 2.09606 97 87 78
-1.24206 0.306199 2.11989 143 120 102
-1.22158 0.308894 2.13698 144 118 103
-1.19151 0.309489 2.13873 129 114 85
-1.16144 0.310085 2.14048 145 119 106
-1.14879 0.314914 2.17303 148 119 105
-1.12676 0.31764 2.19021 138 118 109
-1.10481 0.320507 2.20839 133 116 98
-1.07385 0.321121 2.21019 135 116 101
-1.04288 0.321735 2.212 138 116 103
-1.01999 0.32462 2.23023 130 108 95
-0.988791 0.325239 2.23205 86 65 62
-0.95759 0.325857 2.23386 82 69 60
-0.919019 0.324189 2.21921 71 59 47
-0.888053 0.324803 2.22101 74 60 51
-0.857088 0.325417 2.22282 66 48 48
-0.832788 0.328331 2.24113 67 54 46
-0.801587 0.328949 2.24295 62 49 40
-0.757994 0.324949 2.21169 64 55 50
-0.727264 0.325558 2.21348 65 51 48
-0.696533 0.326167 2.21527 67 53 50
-0.665802 0.326776 2.21706 59 48 42
-0.601367 0.312459 2.11247 31 25 27
-0.559145 0.307001 2.07119 28 19 22
-0.569104 0.326403 2.20679 47 42 39
-0.551982 0.333896 2.25748 54 36 34
-0.516465 0.332168 2.24265 56 47 48
-0.481417 0.33043 2.2278 64 52 36
-0.454533 0.333395 2.24626 62 51 47
-0.423568 0.334009 2.24806 61 51 49
-0.389225 0.332258 2.23317 57 42 39
-0.398791 0.363256 2.4493 117 106 88
-0.365048 0.363925 2.45126 132 101 83
-0.337594 0.370192 2.49262 119 100 83
-0.303298 0.370872 2.49462 123 102 83
-0.271724 0.374502 2.51733 119 100 86
-0.239569 0.378144 2.54008 117 94 86
-0.204692 0.378835 2.54211 121 96 91
-0.169816 0.379526 2.54414 121 98 90
-0.13338 0.377244 2.52539 111 93 83
-0.100064 0.380909 2.5482 116 94 80
-0.0651878 0.3816 2.55023 118 94 90
-0.0310016 0.385282 2.57309 106 86 79
0.0041647 0.385979 2.57514 106 83 77
0.039331 0.386676 2.57719 95 79 80
0.0737838 0.375484 2.4967 47 37 36
0.1048 0.356928 2.36531 42 33 36
0.134431 0.347501 2.29746 67 53 50
0.156272 0.32118 2.11285 152 135 119
0.181312 0.313665 2.05865 158 142 116
0.207058 0.310312 2.03331 140 122 100
0.232148 0.30709 2.00893 152 135 109
0.259259 0.307627 2.01051 162 144 134
0.28494 0.306419 2.00008 167 150 122
0.31348 0.308702 2.01367 156 135 114
0.34059 0.309239 2.01524 162 142 118
0.365774 0.308021 2.00478 161 144 118
0.394811 0.310314 2.0184 169 149 124
0.421922 0.310851 2.01998 171 155 130
0.446608 0.309624 2.00949 175 153 129
0.470746 0.308242 1.99797 174 153 136
0.494755 0.307001 1.98744 140 123 105
0.515267 0.303831 1.96379 132 115 97
0.547954 0.308056 1.99054 143 126 106
0.584585 0.314075 2.02945 157 133 105
0.611696 0.314612 2.03103 154 129 109
0.635221 0.313362 2.02047 160 135 113
0.654351 0.310164 1.99674 115 73 49
0.67279 0.306953 1.97296 125 88 70
0.694961 0.305676 1.96233 117 88 70
0.725298 0.307994 1.97602 101 89 77
0.769945 0.316032 2.02832 107 89 85
0.787347 0.3128 2.00448 100 88 72
0.833722 0.320873 2.05688 100 86 83
0.855691 0.319448 2.04524 107 96 78
0.877724 0.318168 2.0346 104 85 79
0.904668 0.318702 2.03617 112 101 83
0.931613 0.319236 2.03773 100 83 65
0.952518 0.317791 2.02603 102 82 73
0.979283 0.318321 2.02759 87 70 50
-1.25211 0.338336 2.13301 139 121 101
-1.22205 0.338932 2.13476 137 112 107
-1.19198 0.339528 2.13651 136 117 100
-1.17084 0.342457 2.15363 133 115 95
-1.14926 0.345395 2.17077 137 110 99
-1.13626 0.350829 2.2043 139 119 94
-1.11408 0.353936 2.22247 133 114 97
-1.08288 0.354554 2.22428 123 105 93
-1.05168 0.355172 2.2261 128 109 94
-1.02047 0.355791 2.22792 102 90 66
-0.937134 0.339716 2.12057 66 51 44
-0.894066 0.335863 2.09329 66 56 44
-0.858335 0.334218 2.08047 65 48 54
-0.835617 0.337022 2.09669 64 51 43
-0.812485 0.339833 2.11293 63 53 44
-0.783053 0.340416 2.11465 70 57 51
-0.759298 0.34324 2.13092 54 49 43
-0.724189 0.341583 2.11807 61 48 42
-0.694757 0.342166 2.11979 59 48 46
-0.665325 0.34275 2.1215 61 50 44
-0.640742 0.34559 2.13783 56 47 38
-0.592537 0.337133 2.08106 29 27 28
-0.551824 0.347352 2.14301 35 35 27
-0.526204 0.350213 2.15939 58 45 36
-0.496358 0.350805 2.16113 63 54 47
-0.466511 0.351396 2.16287 53 43 33
-0.436665 0.351988 2.16461 60 54 42
-0.406819 0.35258 2.16634 59 50 41
-0.373989 0.350877 2.15336 59 51 38
-0.336022 0.34457 2.11089 99 79 70
-0.368996 0.400705 2.46842 111 93 83
-0.341431 0.407683 2.51074 119 97 84
-0.306845 0.408369 2.51275 114 96 72
-0.274985 0.412295 2.53546 120 99 80
-0.240109 0.412986 2.53749 119 99 88
-0.205233 0.413677 2.53952 116 96 89
-0.170356 0.414368 2.54156 110 93 85
-0.13548 0.41506 2.54359 111 88 82
-0.100604 0.415751 2.54562 104 87 71
-0.065728 0.416442 2.54765 105 89 74
-0.0315463 0.420414 2.57049 99 81 69
0.00361998 0.421111 2.57254 104 80 68
0.0386668 0.425257 2.59643 93 76 69
0.0727622 0.400205 2.43556 41 31 30
0.104301 0.389065 2.36293 44 35 28
0.133948 0.378671 2.29515 43 33 32
0.155829 0.349769 2.11074 120 102 90
0.180881 0.341481 2.05659 148 127 108
0.205625 0.335696 2.01831 151 133 111
0.230633 0.33227 1.99494 154 132 121
0.25495 0.32883 1.97153 151 134 108
0.277149 0.323466 1.93609 180 159 140
0.301644 0.322069 1.9256 160 136 110
0.329325 0.3245 1.93913 176 152 126
0.359262 0.328858 1.9647 162 146 120
0.385682 0.329382 1.96624 162 141 112
0.409845 0.327978 1.95573 161 140 119
0.436099 0.328498 1.95726 176 152 124
0.462353 0.329019 1.95879 172 146 123
0.485853 0.327602 1.94824 174 124 123
0.509022 0.326179 1.93768 168 132 116
0.532116 0.324911 1.9281 160 135 113
0.551655 0.32169 1.9064 148 132 99
0.583656 0.325932 1.9311 147 127 102
0.61271 0.328234 1.94371 143 103 91
0.642381 0.330704 1.95736 110 38 23
0.664555 0.329261 1.94673 88 32 19
0.678917 0.324212 1.91381 115 51 52
0.700477 0.322914 1.90414 110 49 31
0.725777 0.323415 1.90561 119 81 80
0.751078 0.323917 1.90709 88 75 56
0.794166 0.33183 1.95428 94 83 61
0.829907 0.336304 1.98019 110 98 82
0.85616 0.336824 1.98172 102 88 77
0.882414 0.337344 1.98325 98 81 71
0.908668 0.337865 1.98478 116 98 84
0.923777 0.334399 1.96183 100 76 76
0.955437 0.336909 1.97559 98 81 74
-1.25258 0.368375 2.13078 134 108 107
-1.22251 0.36897 2.13253 133 112 93
-1.21075 0.374665 2.16496 130 109 92
-1.18024 0.37527 2.16673 136 110 95
-1.14973 0.375875 2.16851 128 110 90
-1.13674 0.381765 2.202 126 107 100
-1.11456 0.385106 2.22016 131 108 100
-1.08336 0.385724 2.22198 126 106 82
-1.05216 0.386343 2.22379 129 106 90
-0.989578 0.376318 2.16197 68 54 54
-0.890506 0.35285 2.01993 66 55 49
-0.868546 0.355675 2.0351 64 51 45
-0.840122 0.356238 2.03676 59 52 36
-0.817582 0.359074 2.05196 68 57 55
-0.788965 0.359641 2.05362 68 59 54
-0.760348 0.360209 2.05529 67 53 44
-0.715825 0.353922 2.01622 56 46 44
-0.68268 0.35219 2.00426 46 36 44
-0.674498 0.36191 2.06029 68 54 51
-0.645882 0.362477 2.06196 64 53 49
-0.617265 0.363045 2.06362 65 52 43
-0.584313 0.361308 2.05165 48 40 37
-0.560032 0.364179 2.06696 52 42 40
-0.539593 0.369534 2.09691 49 41 39
-0.506553 0.367628 2.08396 71 55 55
-0.477743 0.368199 2.08563 101 92 87
-0.452541 0.371259 2.10198 62 53 46
-0.423523 0.371834 2.10367 65 56 49
-0.394506 0.372409 2.10536 59 48 46
-0.359715 0.368149 2.07862 58 51 41
-0.331098 0.368716 2.08029 73 56 46
-0.372952 0.438037 2.48555 96 77 71
-0.345277 0.445755 2.52882 95 79 66
-0.310401 0.446446 2.53085 112 86 73
-0.275525 0.447137 2.53288 110 93 83
-0.243089 0.451364 2.5556 111 89 75
-0.205773 0.44852 2.53694 116 93 85
-0.170897 0.449211 2.53897 113 93 84
-0.13759 0.453455 2.56174 102 82 73
-0.102424 0.454152 2.56379 110 90 83
-0.0672574 0.454849 2.56584 100 83 76
-0.0328233 0.459287 2.58967 99 82 74
0.00264702 0.45999 2.59173 104 84 73
0.0381173 0.460693 2.5938 81 67 56
0.0722478 0.433377 2.43311 41 31 32
0.103407 0.418121 2.34267 42 33 36
0.133464 0.409841 2.29284 40 34 34
0.160596 0.396383 2.21308 47 33 33
0.181338 0.371704 2.06847 136 121 98
0.204198 0.360721 2.00334 156 138 124
0.229031 0.356946 1.97998 159 141 129
0.251915 0.351085 1.94461 159 143 117
0.274014 0.345549 1.91118 155 139 114
0.296736 0.342073 1.88969 177 155 131
0.320579 0.340668 1.88017 164 140 116
0.342356 0.337345 1.85961 158 141 115
0.369266 0.339756 1.87209 166 135 117
0.392349 0.338336 1.86252 150 118 107
0.421781 0.342674 1.88606 151 118 111
0.451821 0.347024 1.90963 179 114 120
0.480176 0.349635 1.92319 176 101 121
0.500356 0.346109 1.90155 174 97 105
0.525808 0.346613 1.90303 175 154 123
0.542327 0.341308 1.87126 175 153 130
0.564194 0.339864 1.86162 169 150 120
0.585756 0.338414 1.85196 161 144 116
0.613883 0.340849 1.86451 159 134 112
0.645899 0.345238 1.8882 167 99 114
0.667309 0.343785 1.87854 160 118 104
0.688416 0.342326 1.86885 154 129 99
0.709219 0.340861 1.85915 146 126 101
0.725905 0.337607 1.83929 142 124 114
0.758603 0.34184 1.86203 104 85 70
0.792291 0.346262 1.88581 97 84 65
0.831237 0.352667 1.92082 102 91 73
0.856689 0.353171 1.9223 101 79 65
0.882142 0.353676 1.92378 110 91 77
0.907594 0.35418 1.92526 112 90 79
0.933047 0.354685 1.92675 107 89 77
-1.26265 0.401175 2.14385 134 115 101
-1.23236 0.401775 2.14561 135 109 110
-1.21123 0.405146 2.1627 130 110 99
-1.18965 0.408525 2.17981 136 113 95
-1.15892 0.409134 2.1816 126 112 86
-1.14624 0.415658 2.21603 137 111 98
-1.11504 0.416276 2.21785 128 106 95
-1.0924 0.419862 2.23601 126 104 90
-1.06096 0.420485 2.23784 99 82 72
-0.893011 0.370864 1.96322 68 65 50
-0.859537 0.369129 1.95229 62 59 42
-0.838072 0.371953 1.96642 81 64 57
-0.816681 0.37496 1.98154 68 54 54
-0.789018 0.375508 1.98315 76 61 56
-0.761354 0.376057 1.98476 69 53 53
-0.738797 0.378902 1.99896 63 52 50
-0.700723 0.374675 1.97442 24 13 19
-0.668506 0.372915 1.96341 27 17 18
-0.650701 0.37825 1.99121 61 51 49
-0.627425 0.381109 2.00544 66 54 54
-0.599582 0.381661 2.00707 69 59 47
-0.57174 0.382213 2.00869 58 46 34
-0.540048 0.380443 1.99765 147 136 132
-0.516054 0.383317 2.01193 192 178 178
-0.484722 0.381539 2.00087 128 124 115
-0.457058 0.382088 2.00248 112 103 106
-0.426024 0.38012 1.99042 101 88 95
-0.404682 0.385524 2.01842 101 91 99
-0.379823 0.3886 2.03374 63 55 52
-0.351787 0.389155 2.03537 65 55 46
-0.323751 0.389711 2.037 62 51 45
-0.373483 0.4723 2.48301 90 73 66
-0.345818 0.480597 2.52624 94 74 63
-0.310942 0.481288 2.52827 98 81 63
-0.276065 0.48198 2.5303 101 82 67
-0.243634 0.486497 2.553 110 92 80
-0.208467 0.487194 2.55505 111 91 84
-0.173301 0.487891 2.55709 109 89 90
-0.138135 0.488588 2.55914 100 84 69
-0.102968 0.489285 2.56119 108 88 79
-0.0678021 0.489982 2.56324 99 81 71
-0.0333727 0.494723 2.58704 105 83 85
0.00209759 0.495426 2.58911 105 89 76
0.0375679 0.496129 2.59117 89 74 69
0.0717335 0.466549 2.43065 43 32 36
0.102913 0.450009 2.34031 46 32 32
0.132376 0.437863 2.27365 50 40 38
0.16013 0.426422 2.21085 47 39 37
0.183559 0.407514 2.10817 57 43 40
0.203778 0.387805 2.00133 152 133 116
0.226345 0.379028 1.9531 166 150 124
0.248996 0.372835 1.91874 164 127 111
0.272193 0.369052 1.8973 176 154 131
0.294887 0.365443 1.87682 164 144 119
0.316972 0.361822 1.85631 175 152 134
0.33845 0.358188 1.83576 167 145 124
0.359493 0.354731 1.81617 175 148 127
0.382019 0.353333 1.80757 172 124 120
0.410311 0.357583 1.82904 170 120 123
0.4327 0.356182 1.82044 175 131 122
0.457102 0.356666 1.82186 134 78 77
0.483933 0.359042 1.83333 124 54 62
0.511297 0.361614 1.84582 151 92 84
0.535989 0.362104 1.84726 169 144 114
0.560681 0.362593 1.8487 169 146 115
0.579113 0.359084 1.82896 175 155 131
0.600396 0.357661 1.82029 165 146 116
0.621077 0.356041 1.8106 159 138 111
0.648924 0.358623 1.82312 146 124 103
0.676722 0.361019 1.83465 149 130 97
0.697452 0.359585 1.82594 164 140 114
0.709904 0.354112 1.79595 161 147 121
0.729791 0.352661 1.7872 148 128 101
0.753489 0.353131 1.78858 123 107 84
0.785636 0.357458 1.81027 100 82 62
0.832298 0.367976 1.86452 94 81 64
0.856991 0.368466 1.86595 109 88 83
0.886786 0.371086 1.87859 109 93 70
0.90112 0.367311 1.85762 103 84 70
-1.26311 0.431434 2.14161 127 111 96
-1.25159 0.438008 2.17396 126 105 102
-1.22086 0.438617 2.17575 126 113 97
-1.19013 0.439226 2.17754 129 102 91
-1.1594 0.439835 2.17933 121 100 97
-1.14673 0.446828 2.21372 123 105 81
-1.11553 0.447447 2.21554 124 105 91
-1.09289 0.451267 2.23369 124 102 81
-0.863456 0.386409 1.90057 73 59 48
-0.83085 0.384477 1.8896 75 61 60
-0.80443 0.385001 1.89114 73 69 60
-0.783658 0.38799 1.90522 70 58 44
-0.767574 0.393267 1.9309 78 65 57
-0.745511 0.396083 1.94407 70 59 63
-0.713685 0.394335 1.93404 75 64 60
-0.677261 0.390099 1.91141 57 46 42
-0.659795 0.395403 1.93718 65 51 51
-0.628281 0.393449 1.92614 72 60 46
-0.605906 0.396471 1.94032 71 62 53
-0.578961 0.397005 1.94189 64 55 46
-0.547986 0.395041 1.93082 71 57 54
-0.525072 0.398073 1.94502 64 50 47
-0.498127 0.398607 1.94659 58 48 46
-0.474406 0.401457 1.95985 67 52 47
-0.450607 0.404506 1.97411 60 46 43
-0.420185 0.402531 1.96301 52 45 37
-0.396027 0.405588 1.97729 59 46 38
-0.368737 0.406129 1.97888 44 35 30
-0.344041 0.409196 1.99318 51 37 34
-0.314157 0.407211 1.98205 53 43 42
-0.377624 0.510655 2.50105 78 65 49
-0.346358 0.515439 2.52366 81 62 47
-0.311482 0.516131 2.52569 91 68 52
-0.276606 0.516822 2.52772 93 74 57
-0.244178 0.521629 2.5504 101 84 76
-0.209012 0.522326 2.55244 113 93 84
-0.175803 0.527347 2.57616 102 82 73
-0.138679 0.52372 2.55654 98 80 70
-0.104863 0.528753 2.58029 107 88 73
-0.0693925 0.529456 2.58235 100 83 65
-0.0346638 0.534507 2.60615 99 85 74
0.00111049 0.535216 2.60824 101 85 70
0.0368848 0.535925 2.61032 85 68 58
0.0726591 0.536634 2.6124 32 24 22
0.103195 0.489052 2.37363 28 22 24
0.131896 0.468799 2.27135 51 44 38
0.158877 0.453272 2.19274 45 35 34
0.184943 0.44189 2.13486 49 36 28
0.204357 0.417487 2.01225 119 102 94
0.22376 0.40062 1.92726 114 56 45
0.245043 0.39192 1.88296 156 97 89
0.267893 0.38801 1.86251 184 157 138
0.290135 0.384088 1.84203 180 155 133
0.313375 0.382368 1.83249 172 146 131
0.333115 0.376612 1.80295 176 154 133
0.353735 0.372856 1.78336 183 162 135
0.377709 0.373331 1.78476 176 155 124
0.397659 0.36976 1.76612 167 142 112
0.421356 0.37023 1.7675 167 146 127
0.44963 0.374757 1.78895 172 148 122
0.471178 0.373201 1.7803 175 148 118
0.492449 0.371639 1.77164 155 110 87
0.513714 0.370276 1.76397 148 122 95
0.545526 0.376657 1.79453 163 142 111
0.566521 0.37509 1.78586 164 139 119
0.584433 0.371678 1.76809 162 146 110
0.608007 0.372145 1.76946 168 148 121
0.63158 0.372612 1.77084 155 134 107
0.658332 0.374927 1.7813 148 130 110
0.675056 0.371491 1.76347 147 125 102
0.705727 0.375866 1.78406 153 140 106
0.71798 0.370358 1.75607 160 145 126
0.7376 0.368963 1.7483 148 131 111
0.760773 0.369422 1.74965 144 123 104
0.780021 0.368019 1.74186 122 99 85
0.828714 0.380287 1.80113 101 85 69
0.852549 0.380759 1.80251 96 78 66
0.885936 0.385387 1.82426 111 92 78
-1.27319 0.464897 2.15463 124 111 105
-1.24268 0.465501 2.15641 131 105 90
-1.22134 0.469318 2.17347 123 106 88
-1.19061 0.469927 2.17526 131 112 82
-1.16914 0.473958 2.19332 130 109 92
-1.15624 0.481426 2.2277 122 106 80
-1.12481 0.482049 2.22953 122 97 90
-1.09337 0.482672 2.23136 115 95 71
-0.861073 0.400311 1.83943 77 67 57
-0.835302 0.400822 1.84093 69 58 62
-0.809532 0.401333 1.84243 74 62 66
-0.794077 0.406517 1.86607 76 70 56
-0.757992 0.402354 1.84543 76 61 58
-0.741901 0.407552 1.86911 70 59 63
-0.725581 0.412966 1.8938 60 51 52
-0.699161 0.413489 1.89534 63 52 50
-0.672741 0.414013 1.89687 59 49 50
-0.646322 0.414537 1.89841 51 43 40
-0.619902 0.41506 1.89995 48 43 40
-0.597875 0.418254 1.91409 47 35 35
-0.571276 0.418781 1.91564 51 39 39
-0.544677 0.419309 1.91719 50 34 35
-0.521635 0.422311 1.9304 48 33 40
-0.498544 0.425526 1.9446 42 35 29
-0.4716 0.42606 1.94617 39 29 27
-0.447715 0.429078 1.95943 35 30 24
-0.420604 0.429616 1.961 38 27 23
-0.39645 0.432852 1.97527 38 27 21
-0.36916 0.433393 1.97686 38 33 30
-0.344466 0.43664 1.99115 43 33 31
-0.314579 0.434474 1.98003 33 23 31
-0.37816 0.545208 2.49849 80 62 48
-0.346898 0.550282 2.52107 90 70 71
-0.315056 0.555367 2.5437 83 70 61
-0.27989 0.556064 2.54574 94 73 54
-0.244723 0.556761 2.54779 98 83 64
-0.209557 0.557458 2.54984 98 79 65
-0.174391 0.558155 2.55189 110 86 86
-0.140883 0.563486 2.5756 104 79 74
-0.105412 0.564189 2.57766 97 79 69
-0.0699419 0.564892 2.57973 94 80 54
-0.0359983 0.575109 2.62621 106 86 77
9.38666e-005 0.575825 2.62831 104 83 80
0.036186 0.57654 2.63041 92 73 67
0.0719394 0.567704 2.58799 33 21 21
0.103909 0.533552 2.42767 27 22 26
0.133843 0.514419 2.33744 46 40 40
0.158415 0.483089 2.19053 47 38 41
0.183552 0.467679 2.11783 45 36 31
0.206999 0.453296 2.04997 48 34 31
0.222271 0.424116 1.91339 107 27 38
0.242355 0.412636 1.85918 156 131 111
0.262309 0.403698 1.81683 174 157 137
0.284211 0.39989 1.79833 178 157 138
0.305416 0.395856 1.7788 180 159 140
0.329389 0.396331 1.78019 161 144 114
0.35163 0.394651 1.7716 168 145 129
0.373594 0.392965 1.76299 182 159 128
0.393473 0.389329 1.74536 159 122 103
0.41476 0.38763 1.73671 156 120 106
0.435999 0.386142 1.72904 166 138 114
0.45699 0.384649 1.72137 157 141 105
0.482344 0.387061 1.73174 174 157 127
0.505517 0.38752 1.73309 116 99 83
0.528689 0.387979 1.73444 152 135 105
0.549182 0.386476 1.72673 152 136 113
0.575034 0.388898 1.73714 162 142 115
0.595279 0.38739 1.72942 158 145 110
0.618327 0.387847 1.73076 160 128 107
0.644552 0.390276 1.74119 159 142 116
0.664423 0.38876 1.73345 155 136 104
0.683665 0.387021 1.72468 154 129 109
0.710519 0.389674 1.73613 142 119 103
0.725811 0.385947 1.71823 156 136 112
0.744798 0.384414 1.71044 156 132 108
0.767459 0.384863 1.71176 152 117 97
0.782475 0.381555 1.69582 116 82 70
0.80073 0.380008 1.68798 114 100 74
0.8574 0.396403 1.76248 103 83 82
-1.27366 0.495377 2.15237 126 105 88
-1.25254 0.49941 2.16941 124 111 94
-1.22181 0.500019 2.1712 127 95 96
-1.19108 0.500628 2.17299 128 110 100
-1.16962 0.504894 2.19103 119 100 94
-1.15673 0.512831 2.22537 123 99 87
-1.1253 0.513454 2.2272 119 94 90
-1.08529 0.510406 2.21274 94 79 72
-0.861472 0.426056 1.83752 37 35 22
-0.835702 0.426567 1.83902 44 33 27
-0.809931 0.427078 1.84052 49 33 34
-0.789097 0.429976 1.8526 43 33 42
-0.763174 0.43049 1.85411 42 32 40
-0.737252 0.431003 1.85562 45 32 41
-0.721103 0.436746 1.88027 37 28 31
-0.694849 0.437266 1.8818 42 32 31
-0.673151 0.440407 1.89492 42 31 37
-0.646731 0.440931 1.89646 40 33 25
-0.624887 0.4443 1.91057 42 36 36
-0.598287 0.444828 1.91212 34 25 26
-0.571688 0.445355 1.91367 39 30 31
-0.545089 0.445882 1.91522 38 28 27
-0.518489 0.446409 1.91677 38 28 29
-0.502356 0.455088 1.95426 32 28 17
-0.475246 0.455625 1.95584 32 27 24
-0.451453 0.459034 1.97007 35 27 25
-0.424163 0.459575 1.97166 41 28 19
-0.396873 0.460116 1.97325 32 22 20
-0.372361 0.463538 1.98752 40 33 25
-0.344892 0.464083 1.98912 39 29 20
-0.317422 0.464627 1.99072 39 30 31
-0.382314 0.584433 2.51646 71 58 50
-0.350767 0.589803 2.53904 84 63 58
-0.315601 0.5905 2.54109 88 68 59
-0.280434 0.591197 2.54314 90 71 75
-0.245268 0.591893 2.54519 86 68 58
-0.212373 0.597516 2.56884 94 74 65
-0.176902 0.598219 2.5709 93 76 68
-0.143095 0.603859 2.59461 98 75 69
-0.107321 0.604568 2.59669 96 78 66
-0.0715464 0.605277 2.59877 96 80 64
-0.0373425 0.616347 2.64621 95 80 73
-0.000932602 0.617069 2.64833 89 75 64
0.0354773 0.61779 2.65045 87 69 55
0.0712291 0.598166 2.56362 38 28 27
0.103395 0.566724 2.42521 34 25 30
0.134607 0.554465 2.37072 29 20 21
0.157221 0.509504 2.17346 48 39 42
0.183105 0.496461 2.11569 39 31 29
0.206567 0.481112 2.0479 44 30 30
0.229629 0.469596 1.99689 56 24 27
0.241966 0.43776 1.85732 150 125 120
0.261928 0.428215 1.81502 154 138 122
0.28107 0.419332 1.77563 177 155 144
0.300825 0.413172 1.74813 175 160 137
0.319778 0.406996 1.72058 176 160 135
0.342951 0.407455 1.72193 117 66 62
0.362571 0.403551 1.7043 160 87 94
0.383674 0.401936 1.69664 168 102 104
0.402597 0.398245 1.67996 164 98 108
0.425134 0.398692 1.68127 148 81 88
0.443553 0.395216 1.66555 168 147 120
0.463551 0.393579 1.65782 164 148 123
0.48357 0.392169 1.65109 149 133 107
0.505637 0.392606 1.65237 91 77 64
0.537818 0.400925 1.68783 142 131 103
0.563157 0.40346 1.6982 158 138 113
0.580291 0.399959 1.6824 154 135 105
0.599667 0.39831 1.67464 157 152 114
0.625144 0.400848 1.68502 167 146 117
0.64757 0.401293 1.68632 154 135 105
0.666573 0.399636 1.67854 158 131 110
0.688875 0.400078 1.67984 166 133 116
0.711177 0.40052 1.68114 151 136 105
0.733479 0.400962 1.68243 151 135 109
0.75186 0.399293 1.67461 156 135 116
0.766396 0.395741 1.65867 153 138 117
0.784632 0.394295 1.65182 156 132 106
0.810281 0.396611 1.66122 136 111 104
-1.28375 0.529502 2.16534 119 107 95
-1.25302 0.530111 2.16713 124 106 68
-1.23203 0.534602 2.18513 124 106 82
-1.20107 0.535216 2.18694 126 108 98
-1.18865 0.543613 2.22121 117 106 88
-1.16626 0.548132 2.2393 121 101 92
-1.13459 0.54876 2.24114 119 104 83
-1.10292 0.549387 2.24298 114 97 87
-0.861871 0.451802 1.83561 38 29 30
-0.836101 0.452312 1.83711 47 38 33
-0.810331 0.452823 1.83861 39 28 34
-0.794885 0.458643 1.86221 40 29 23
-0.768797 0.45916 1.86373 26 22 21
-0.747764 0.462454 1.8768 30 24 24
-0.726399 0.465754 1.88989 39 35 23
-0.699979 0.466277 1.89142 34 24 22
-0.67356 0.466801 1.89296 47 39 36
-0.651898 0.470347 1.90705 37 25 25
-0.625299 0.470874 1.9086 41 31 29
-0.598699 0.471401 1.91015 43 33 24
-0.5721 0.471928 1.9117 40 26 25
-0.549229 0.475258 1.92488 41 27 24
-0.526324 0.478829 1.93904 43 29 29
-0.502776 0.482172 1.95225 47 35 35
-0.479166 0.485757 1.96646 40 31 22
-0.451876 0.486298 1.96805 38 34 23
-0.427727 0.489893 1.98228 43 30 22
-0.400257 0.490437 1.98388 37 27 26
-0.372787 0.490982 1.98548 28 25 18
-0.345317 0.491526 1.98708 44 36 34
-0.317847 0.49207 1.98868 36 27 20
-0.382855 0.619275 2.51388 71 54 38
-0.351312 0.624935 2.53644 80 67 51
-0.316145 0.625632 2.53849 77 58 51
-0.283863 0.631546 2.56208 81 69 53
-0.245813 0.627026 2.54259 88 70 70
-0.215198 0.638181 2.58779 91 73 59
-0.177452 0.633655 2.56828 93 78 59
-0.145393 0.645078 2.61456 99 85 76
-0.107875 0.640308 2.59404 95 81 72
-0.0732085 0.646508 2.61876 105 87 77
-0.0379065 0.652722 2.64351 101 84 76
-0.00149658 0.653443 2.64564 96 75 72
0.0349133 0.654165 2.64776 94 70 66
0.0709967 0.643853 2.60446 38 28 27
0.10288 0.599896 2.42275 33 25 23
0.133479 0.582523 2.35051 32 24 22
0.156762 0.539114 2.17127 43 36 30
0.182659 0.525244 2.11356 44 33 31
0.205146 0.505792 2.03296 56 41 44
0.229209 0.49668 1.99488 50 38 38
0.24386 0.468203 1.87731 103 87 71
0.259196 0.447891 1.79332 149 137 115
0.27807 0.438436 1.75396 156 145 115
0.297554 0.43187 1.72648 171 153 129
0.316396 0.425531 1.69994 142 79 74
0.336194 0.421608 1.68333 107 25 29
0.357175 0.419867 1.67567 185 125 127
0.378107 0.418364 1.66899 196 139 146
0.400533 0.418808 1.6703 189 135 133
0.42296 0.419253 1.6716 191 113 135
0.44103 0.415296 1.65489 188 158 134
0.461161 0.413777 1.64817 180 160 127
0.480801 0.412009 1.64043 180 162 140
0.498209 0.408518 1.62565 178 153 131
0.517255 0.406738 1.61788 105 88 68
0.538852 0.407166 1.61914 162 146 120
0.55785 0.405625 1.61235 168 147 118
0.573917 0.402108 1.59749 165 141 117
0.606817 0.410671 1.63198 158 142 116
0.62231 0.406902 1.6161 148 130 108
0.656343 0.415488 1.65065 161 102 104
0.675133 0.413942 1.64385 170 81 99
0.696966 0.414375 1.64512 172 102 104
0.71163 0.41059 1.6292 154 107 101
0.733227 0.411019 1.63046 138 118 107
0.758868 0.413684 1.64083 137 122 99
0.772717 0.409883 1.62486 130 108 87
0.790388 0.408316 1.618 100 83 73
-1.29444 0.564311 2.17923 128 105 89
-1.26348 0.564924 2.18104 123 104 98
-1.23251 0.565538 2.18284 121 105 71
-1.20155 0.566152 2.18464 123 100 94
-1.17986 0.570892 2.20267 122 103 99
-1.16675 0.579772 2.23695 123 103 92
-1.14441 0.584778 2.256 119 100 94
-1.11249 0.585411 2.25786 113 98 69
-0.86227 0.477547 1.8337 41 30 26
-0.8365 0.478058 1.83521 53 43 42
-0.815822 0.481256 1.84725 38 27 31
-0.795289 0.484706 1.86028 42 34 31
-0.774424 0.488162 1.87333 36 26 17
-0.74817 0.488682 1.87486 42 31 37
-0.726808 0.492148 1.88793 44 35 30
-0.705509 0.495866 1.90199 43 34 39
-0.678909 0.496393 1.90354 29 25 22
-0.65231 0.49692 1.90509 41 36 32
-0.629939 0.500406 1.91822 32 27 24
-0.607575 0.504145 1.93234 35 30 27
-0.580631 0.504679 1.93391 34 28 28
-0.553686 0.505213 1.93548 38 29 30
-0.526741 0.505747 1.93705 38 28 27
-0.506879 0.512479 1.96285 37 25 25
-0.479589 0.51302 1.96444 36 26 27
-0.452298 0.513561 1.96603 45 30 25
-0.428152 0.517336 1.98025 38 24 24
-0.400682 0.51788 1.98185 40 31 26
-0.376211 0.521915 1.99708 41 30 26
-0.345743 0.518969 1.98505 34 28 30
-0.318273 0.519514 1.98665 35 29 33
-0.383395 0.654118 2.5113 75 57 55
-0.351856 0.660067 2.53384 71 57 46
-0.31669 0.660764 2.53589 77 58 52
-0.284412 0.666982 2.55946 85 71 60
-0.248942 0.667685 2.56152 88 67 64
-0.215752 0.67392 2.58514 86 67 60
-0.182044 0.68042 2.60978 91 76 69
-0.145952 0.681135 2.61188 98 77 72
-0.10986 0.68185 2.61399 96 77 62
-0.0737676 0.682566 2.61609 100 78 64
-0.0384705 0.689096 2.64082 102 85 69
-0.00253782 0.69564 2.66559 97 80 70
0.0341899 0.696368 2.66773 92 72 63
0.0707593 0.691261 2.64718 63 49 48
0.102366 0.633068 2.42029 33 28 25
0.134258 0.624065 2.38469 32 25 33
0.161765 0.597482 2.2808 24 19 16
0.182213 0.554026 2.11143 45 33 33
0.204717 0.533429 2.03091 42 31 27
0.228789 0.523764 1.99287 50 38 42
0.249475 0.508455 1.93295 46 30 33
0.259994 0.47469 1.80146 144 129 108
0.275209 0.457244 1.73333 167 149 129
0.294582 0.450529 1.70685 149 85 85
0.313182 0.443799 1.68033 92 30 35
0.331353 0.437567 1.65576 98 22 35
0.350484 0.433636 1.64011 135 43 32
0.370748 0.431756 1.63242 162 91 73
0.392691 0.432191 1.63369 189 130 132
0.414633 0.432625 1.63497 170 109 116
0.434642 0.430994 1.62825 177 156 135
0.454429 0.429358 1.62152 174 157 127
0.473726 0.427458 1.61377 170 152 132
0.493057 0.425813 1.607 181 163 139
0.512167 0.424164 1.60023 172 155 129
0.531056 0.42251 1.59344 162 138 114
0.552322 0.422931 1.59468 170 148 124
0.57088 0.421271 1.58787 172 151 124
0.592035 0.42169 1.58911 165 122 113
0.607697 0.418197 1.57523 168 106 107
0.625605 0.416524 1.56839 148 98 101
0.652743 0.421118 1.58574 166 88 102
0.670541 0.419443 1.57889 141 58 68
0.701181 0.425881 1.60335 165 92 101
0.718965 0.424206 1.5965 165 112 108
0.74012 0.424625 1.59773 159 124 118
0.761275 0.425044 1.59896 148 126 102
0.779093 0.423623 1.5931 136 119 91
-1.2847 0.590904 2.16079 118 95 89
-1.27395 0.600207 2.19491 122 103 89
-1.23299 0.596474 2.18055 115 99 86
-1.22106 0.6058 2.21473 118 94 90
-1.19891 0.610784 2.23276 121 92 84
-1.17682 0.616034 2.25178 120 101 94
-1.1449 0.616666 2.25364 112 99 80
-1.12206 0.621931 2.27269 110 89 68
-0.868068 0.506126 1.84232 39 23 24
-0.847869 0.509734 1.85531 42 35 16
-0.827339 0.513349 1.86833 35 23 33
-0.801085 0.51387 1.86985 37 28 21
-0.774831 0.51439 1.87138 31 18 12
-0.753637 0.518018 1.88444 39 29 30
-0.73252 0.521912 1.89847 36 29 23
-0.705921 0.522439 1.90002 45 32 24
-0.683884 0.526084 1.91312 34 27 19
-0.657119 0.526615 1.91468 31 26 20
-0.634938 0.53053 1.92877 43 32 36
-0.607993 0.531064 1.93034 36 33 28
-0.584947 0.534729 1.9435 34 25 18
-0.557837 0.535266 1.94508 40 22 22
-0.530726 0.535804 1.94666 31 20 18
-0.510987 0.543146 1.97342 39 30 21
-0.483517 0.54369 1.97502 41 26 31
-0.456047 0.544235 1.97662 34 26 23
-0.428578 0.544779 1.97822 40 31 22
-0.401108 0.545323 1.97982 41 25 26
-0.37664 0.549551 1.99503 28 28 18
-0.348976 0.550099 1.99664 41 26 33
-0.323741 0.554075 2.01091 43 35 33
-0.383935 0.68896 2.50872 64 49 42
-0.355902 0.701012 2.5527 77 59 45
-0.320432 0.701715 2.55476 76 60 45
-0.284961 0.702418 2.55683 82 64 62
-0.25208 0.708951 2.58041 96 75 74
-0.216306 0.70966 2.5825 96 78 64
-0.182603 0.716477 2.60711 98 85 69
-0.146511 0.717192 2.60921 104 90 81
-0.110419 0.717907 2.61132 126 107 100
-0.0743266 0.718623 2.61342 122 105 95
-0.0390345 0.725471 2.63812 131 113 101
-0.00310672 0.732332 2.66287 130 115 96
0.033621 0.73306 2.66501 123 104 98
0.0703488 0.733788 2.66715 105 92 84
0.107076 0.734516 2.66929 40 28 28
0.133752 0.656713 2.38227 30 24 26
0.161282 0.628653 2.27849 36 24 28
0.185483 0.598922 2.1686 35 28 22
0.205274 0.56456 2.04172 46 36 34
0.228369 0.550849 1.99087 46 35 41
0.25031 0.537916 1.9429 56 41 38
0.269814 0.522529 1.88593 68 51 41
0.274846 0.480656 1.73159 143 131 109
0.291473 0.468421 1.68627 141 90 71
0.310133 0.461839 1.66175 164 143 122
0.328075 0.455244 1.63719 158 129 113
0.346975 0.451074 1.62155 153 109 108
0.365405 0.446894 1.60588 169 138 117
0.385291 0.44515 1.59916 180 152 138
0.403133 0.441226 1.58444 177 157 130
0.424399 0.441647 1.58568 172 154 130
0.441834 0.437983 1.57192 166 151 118
0.460738 0.436219 1.56514 162 145 115
0.479422 0.43445 1.55835 176 157 125
0.500259 0.434863 1.55956 168 153 120
0.518922 0.433362 1.55376 169 149 124
0.537066 0.431582 1.54693 163 142 113
0.560403 0.434184 1.55617 168 151 121
0.583608 0.436515 1.56442 177 154 123
0.604445 0.436928 1.56563 179 134 115
0.622624 0.435417 1.55979 172 129 113
0.637461 0.431701 1.54589 172 119 113
0.655143 0.43018 1.54002 161 120 114
0.67221 0.428379 1.53314 146 100 85
0.692536 0.428782 1.53432 141 80 77
0.70972 0.427251 1.52843 161 119 103
0.743366 0.435671 1.55895 157 120 104
0.767808 0.438294 1.56825 152 132 107
-1.30563 0.630759 2.19078 119 95 95
-1.28442 0.635959 2.20874 124 102 91
-1.23347 0.62741 2.17826 118 106 90
-1.23107 0.641796 2.22857 118 105 89
-1.1994 0.642424 2.23042 123 106 86
-1.17731 0.647922 2.24941 115 95 84
-1.15473 0.653431 2.26844 119 97 83
-1.11348 0.649187 2.25313 115 85 85
-0.874361 0.53528 1.85186 35 39 22
-0.853999 0.539058 1.86485 54 39 46
-0.827745 0.539578 1.86638 36 34 19
-0.806886 0.543365 1.8794 43 32 38
-0.780466 0.543889 1.88094 43 34 27
-0.754046 0.544412 1.88248 41 28 22
-0.737829 0.551763 1.90802 39 26 18
-0.716189 0.555847 1.92207 44 26 26
-0.684299 0.552824 1.91114 36 25 19
-0.6623 0.556915 1.92521 24 16 13
-0.639589 0.560739 1.93834 37 32 28
-0.612478 0.561276 1.93992 38 29 20
-0.585367 0.561813 1.9415 34 26 24
-0.558257 0.562351 1.94308 34 31 22
-0.535014 0.566466 1.95722 30 26 17
-0.511412 0.570589 1.97138 37 30 12
-0.487721 0.574995 1.98654 42 32 23
-0.460058 0.575543 1.98815 35 27 24
-0.435544 0.579684 2.00237 30 21 16
-0.404731 0.576639 1.99137 33 25 23
-0.379858 0.580787 2.00561 47 30 20
-0.354827 0.58522 2.02084 37 29 27
-0.321742 0.578284 1.9962 40 35 32
-0.388112 0.729635 2.52658 92 74 60
-0.352946 0.730332 2.52863 107 85 71
-0.320981 0.737151 2.55214 111 93 81
-0.288409 0.743981 2.57568 115 97 85
-0.252634 0.744691 2.57776 123 104 89
-0.21686 0.7454 2.57985 121 100 99
-0.183162 0.752534 2.60444 118 100 86
-0.14707 0.753249 2.60654 116 98 88
-0.110978 0.753965 2.60864 116 96 85
-0.0748857 0.75468 2.61075 115 98 80
-0.0404034 0.768296 2.65801 114 94 87
-0.00367563 0.769024 2.66015 114 94 85
0.0330521 0.769752 2.66229 115 91 87
0.0697799 0.77048 2.66443 105 86 80
0.106508 0.771208 2.66657 92 74 70
0.133894 0.694715 2.39858 21 18 13
0.161613 0.664619 2.29295 35 25 26
0.186938 0.637287 2.19702 31 28 21
0.206958 0.60029 2.06733 38 28 26
0.225715 0.57086 1.96413 51 38 32
0.248662 0.560912 1.92907 52 38 35
0.269417 0.548109 1.88403 41 31 22
0.286387 0.529889 1.82009 78 64 55
0.289818 0.488628 1.67566 149 136 117
0.306934 0.479127 1.64222 159 140 123
0.326183 0.474729 1.62661 174 151 120
0.341985 0.465764 1.59506 173 156 128
0.358673 0.459347 1.57242 181 163 139
0.378332 0.457769 1.56668 183 166 138
0.39757 0.455901 1.55993 181 158 140
0.416587 0.454028 1.55317 178 155 137
0.435638 0.452438 1.54739 178 158 134
0.454227 0.450557 1.5406 177 161 135
0.472877 0.448959 1.5348 161 138 120
0.488961 0.44506 1.52098 154 137 111
0.509287 0.445463 1.52216 172 152 128
0.527343 0.443853 1.51633 169 153 117
0.542839 0.440224 1.50345 170 151 121
0.565338 0.442638 1.51165 163 141 117
0.582911 0.441018 1.50579 162 140 117
0.610917 0.447477 1.52808 167 146 117
0.631243 0.44788 1.52926 179 158 129
0.654826 0.450597 1.53851 176 149 122
0.666001 0.444633 1.51751 166 156 131
0.68309 0.443003 1.51162 170 147 116
0.699985 0.44137 1.50572 154 126 104
0.71345 0.437701 1.49273 139 104 84
0.733196 0.438092 1.49388 149 128 109
-1.31634 0.666741 2.20458 110 97 91
-1.28491 0.667364 2.20641 105 88 78
-1.26323 0.672808 2.22439 114 102 80
-1.23156 0.673436 2.22623 120 97 89
-1.19989 0.674063 2.22807 117 102 79
-1.17781 0.67981 2.24705 120 98 84
-1.15523 0.685567 2.26606 112 95 85
-1.12306 0.686205 2.26793 108 86 75
-0.868871 0.55792 1.83848 40 29 25
-0.860134 0.568712 1.87437 41 32 23
-0.833715 0.569236 1.87591 34 24 22
-0.813142 0.573478 1.88988 35 29 29
-0.786542 0.574005 1.89143 33 26 20
-0.759943 0.574532 1.89298 34 24 22
-0.738243 0.578502 1.90604 47 33 30
-0.716606 0.582765 1.92008 42 30 30
-0.69423 0.586748 1.93318 36 35 33
-0.662717 0.583833 1.92322 35 25 23
-0.640008 0.587823 1.93633 34 33 29
-0.612898 0.58836 1.93791 27 21 23
-0.590017 0.592648 1.95202 42 33 26
-0.558677 0.589435 1.94107 39 28 32
-0.535437 0.59373 1.9552 30 22 20
-0.519504 0.605844 1.99544 31 24 18
-0.484368 0.598577 1.97095 36 31 27
-0.460486 0.603179 1.9861 36 21 26
-0.435975 0.6075 2.00031 39 30 21
-0.411334 0.612118 2.0155 41 27 26
-0.383297 0.612673 2.01713 30 25 22
-0.355261 0.613229 2.01877 45 33 33
-0.327225 0.613785 2.0204 32 27 21
-0.388657 0.764767 2.52398 86 70 55
-0.357001 0.771883 2.54745 93 76 66
-0.321531 0.772587 2.54951 93 82 62
-0.291997 0.786445 2.59546 105 82 76
-0.253189 0.78043 2.57512 109 85 83
-0.219813 0.787876 2.59967 103 83 74
-0.183721 0.788591 2.60177 108 86 88
-0.147629 0.789306 2.60387 104 83 78
-0.111537 0.790022 2.60597 100 81 75
-0.0754447 0.790737 2.60807 101 84 74
-0.0401624 0.798221 2.63273 105 88 70
-0.0037525 0.798942 2.63485 90 76 67
0.0326574 0.799664 2.63697 94 71 63
0.0690674 0.800385 2.6391 68 56 42
0.105477 0.801107 2.64122 68 48 49
0.139583 0.781726 2.57637 25 20 17
0.160315 0.690994 2.27387 29 28 24
0.186472 0.667325 2.1948 30 25 21
0.210814 0.645391 2.12152 26 25 20
0.227529 0.605017 1.98685 43 32 36
0.24702 0.583576 1.91526 56 40 40
0.267736 0.570419 1.87125 51 39 39
0.286005 0.554558 1.81826 48 38 37
0.301743 0.536582 1.75824 117 94 88
0.30659 0.501283 1.64058 153 142 120
0.321541 0.489191 1.60017 162 145 127
0.340165 0.484841 1.58552 153 145 122
0.35535 0.475998 1.55594 155 135 126
0.373096 0.471925 1.54223 176 160 135
0.390426 0.467844 1.5285 163 146 126
0.407342 0.463755 1.51474 171 153 129
0.425883 0.462058 1.50894 168 147 126
0.444231 0.460357 1.50313 168 153 122
0.464364 0.460756 1.5043 170 149 128
0.482421 0.459049 1.49847 165 149 123
0.500286 0.457338 1.49263 162 141 122
0.517956 0.455624 1.48678 159 137 114
0.535434 0.453905 1.48092 168 147 120
0.557641 0.45641 1.48909 177 148 134
0.574925 0.454688 1.48322 177 156 137
0.589739 0.451147 1.4713 144 94 97
0.606553 0.449416 1.4654 142 106 84
0.631313 0.453741 1.47962 153 123 113
0.656853 0.458377 1.49487 170 144 127
0.679738 0.460895 1.50308 171 148 117
0.696538 0.459163 1.49718 166 142 116
0.713145 0.457428 1.49127 159 143 109
0.73289 0.457819 1.49242 148 136 110
-1.32706 0.703192 2.21835 117 87 76
-1.29539 0.70382 2.2202 111 92 77
-1.26372 0.704448 2.22204 103 89 80
-1.23205 0.705076 2.22389 120 104 91
-1.20038 0.705703 2.22573 113 98 91
-1.18789 0.717066 2.2618 124 98 83
-1.15573 0.717704 2.26368 115 96 81
-1.13265 0.723719 2.28269 123 99 99
-0.881066 0.590994 1.85944 41 37 28
-0.860543 0.595106 1.87241 38 35 30
-0.834124 0.59563 1.87395 25 23 10
-0.807704 0.596153 1.87549 36 28 15
-0.792188 0.60418 1.90094 45 35 44
-0.765423 0.604711 1.9025 36 33 14
-0.743968 0.60915 1.91651 38 31 25
-0.72176 0.613295 1.92959 34 26 23
-0.694649 0.613833 1.93117 34 29 23
-0.672311 0.618289 1.94523 38 33 27
-0.64502 0.61883 1.94682 37 30 22
-0.61773 0.619371 1.94841 38 27 21
-0.59044 0.619912 1.95 36 27 18
-0.56315 0.620453 1.95159 42 31 27
-0.539733 0.624931 1.96572 41 31 30
-0.512263 0.625475 1.96732 37 21 21
-0.488578 0.630268 1.98244 38 30 27
-0.46425 0.634764 1.99662 30 21 12
-0.439804 0.639571 2.01179 27 16 14
-0.411768 0.640127 2.01343 36 30 32
-0.383732 0.640682 2.01506 41 29 29
-0.355695 0.641238 2.01669 32 24 21
-0.327659 0.641794 2.01832 37 30 22
-0.385556 0.793487 2.50097 74 53 48
-0.35755 0.80732 2.54482 79 58 53
-0.32208 0.808022 2.54689 81 64 57
-0.283703 0.80199 2.52752 76 63 46
-0.251139 0.809429 2.55102 76 54 41
-0.217968 0.816879 2.57455 77 53 49
-0.180199 0.810835 2.55515 76 59 43
-0.144729 0.811538 2.55722 75 57 47
-0.107871 0.805475 2.53776 75 57 45
-0.0727046 0.806172 2.53981 76 57 43
-0.0383176 0.813647 2.56341 80 60 36
-0.00284724 0.81435 2.56548 87 64 58
0.0326231 0.815053 2.56754 79 62 46
0.0680934 0.815756 2.56961 80 51 45
0.103564 0.816459 2.57168 77 61 48
0.138293 0.810354 2.5521 57 44 38
0.186987 0.702323 2.20834 33 28 25
0.210365 0.67438 2.11937 43 37 37
0.234313 0.657255 2.0648 32 24 22
0.245383 0.605909 1.90147 45 39 39
0.267341 0.595846 1.86937 55 47 34
0.285622 0.579226 1.81643 52 39 46
0.304258 0.566627 1.77628 46 41 37
0.306247 0.523439 1.63893 137 124 92
0.321207 0.510767 1.59857 116 99 81
0.336863 0.501197 1.56806 88 79 70
0.352034 0.492234 1.53949 116 107 92
0.368082 0.48576 1.51882 101 88 79
0.385112 0.481466 1.50508 131 118 102
0.401968 0.477477 1.49232 171 152 122
0.42022 0.475677 1.48651 176 157 124
0.43828 0.473874 1.48069 172 156 123
0.454168 0.469866 1.46787 181 161 136
0.47204 0.468367 1.46302 169 152 122
0.489436 0.466551 1.45716 174 153 132
0.506638 0.46473 1.45129 157 128 122
0.521622 0.461013 1.4394 147 99 97
0.543275 0.463604 1.44753 149 94 91
0.564756 0.465882 1.45467 137 48 54
0.581854 0.464369 1.44978 134 39 35
0.601144 0.464751 1.4509 130 33 42
0.620433 0.465133 1.45202 124 32 33
0.631732 0.45949 1.43403 169 138 120
0.650759 0.459868 1.43513 137 119 95
0.672476 0.462151 1.44229 124 106 84
0.691586 0.462529 1.4434 127 106 89
0.723068 0.471181 1.47076 137 113 101
-1.32755 0.734832 2.21601 133 112 111
-1.29588 0.73546 2.21785 125 112 103
-1.26421 0.736088 2.2197 145 124 121
-1.24264 0.742322 2.23861 148 129 114
-1.21072 0.742954 2.24047 158 130 129
-1.19799 0.754819 2.27652 155 137 123
-1.15622 0.749841 2.2613 152 136 136
-1.14276 0.762043 2.29837 155 136 132
-0.858367 0.602519 1.81274 42 41 37
-0.867164 0.625571 1.88285 38 31 21
-0.834533 0.622024 1.872 23 19 16
-0.819368 0.630389 1.8974 32 26 28
-0.798275 0.635 1.91138 43 35 32
-0.771331 0.635534 1.91295 38 23 30
-0.749291 0.639842 1.926 39 30 23
-0.72218 0.640379 1.92758 36 32 33
-0.695069 0.640917 1.92916 38 27 25
-0.672733 0.645553 1.94321 32 26 28
