ply
format ascii 1.0
element vertex 1300
property float x
property float y
property float z
property uchar red
property uchar green
property uchar blue
end_header
-0.501246 0.0486596 2.36024 139 121 99
-0.46908 0.0492731 2.36215 143 116 97
-0.440719 0.0500337 2.3819 146 119 98
-0.408304 0.0506519 2.38382 135 112 94
-0.375888 0.0512701 2.38574 143 117 102
-0.343473 0.0518883 2.38766 139 111 97
-0.316992 0.0528573 2.42738 129 108 79
-0.284052 0.0534855 2.42933 133 107 92
-0.253554 0.0542991 2.45021 133 107 80
-0.220351 0.0549323 2.45218 131 105 92
-0.187148 0.0555656 2.45414 128 106 85
-0.1556 0.0563992 2.47509 124 102 78
-0.120742 0.0568321 2.45807 132 107 87
-0.0886691 0.0576757 2.47905 130 105 83
-0.0552037 0.058314 2.48103 129 104 84
-0.0223746 0.0591842 2.50306 132 106 83
0.0113671 0.0598277 2.50505 135 109 86
0.0450253 0.0607138 2.52713 139 111 87
0.0790433 0.0613626 2.52914 134 106 95
0.113061 0.0620114 2.53116 137 110 89
0.147079 0.0626602 2.53317 137 112 92
0.181097 0.063309 2.53518 131 105 82
0.215115 0.0639578 2.5372 141 115 92
0.250708 0.0648807 2.55939 139 115 91
0.286946 0.0658282 2.58262 140 116 88
0.32153 0.0664878 2.58466 136 111 89
0.356115 0.0671474 2.58671 134 110 82
0.390699 0.067807 2.58876 133 106 85
0.428388 0.0687821 2.61208 139 111 89
0.463263 0.0694473 2.61414 135 108 91
0.501822 0.070439 2.63751 131 105 80
0.536987 0.0711097 2.63959 131 111 87
0.57662 0.0721341 2.66403 125 99 82
0.61686 0.0731701 2.6885 128 102 77
0.652633 0.0738524 2.69062 124 98 81
0.688406 0.0745347 2.69273 123 100 86
0.724178 0.0752169 2.69485 116 96 71
0.759951 0.0758992 2.69697 115 96 79
0.795724 0.0765814 2.69909 117 97 73
0.838392 0.077676 2.72471 111 86 66
0.86727 0.0779459 2.70332 118 93 86
0.903043 0.0786282 2.70544 109 89 78
0.946664 0.0797409 2.73112 110 89 70
0.966777 0.0795752 2.68712 117 94 76
0.986383 0.0794242 2.64511 122 95 88
0.99753 0.0788799 2.58352 121 96 89
1.00062 0.0779866 2.50538 118 89 85
1.01797 0.0778536 2.46825 124 94 84
1.03511 0.0777411 2.43312 117 101 78
1.04425 0.0772807 2.38145 119 96 80
1.06009 0.0771677 2.34825 130 108 94
1.06847 0.0767416 2.30055 126 104 91
1.09087 0.0769734 2.28581 120 92 81
-1.19259 0.0612823 2.07301 138 119 102
-1.17256 0.0620546 2.08924 129 117 91
-1.14354 0.062608 2.09096 127 110 90
-1.12288 0.0633922 2.10722 141 117 113
-1.09366 0.0639495 2.10895 136 113 95
-1.08032 0.0649842 2.13983 143 117 100
-1.05841 0.0657921 2.15617 143 117 94
-1.02857 0.0663613 2.15794 138 112 99
-1.00653 0.0671977 2.17529 136 111 89
-0.976463 0.0677711 2.17707 136 114 101
-0.946397 0.0683446 2.17885 132 111 92
-0.923475 0.0691979 2.19626 133 112 95
-0.886264 0.0694914 2.18241 143 115 101
-0.8629 0.0703531 2.19984 136 113 95
-0.845575 0.0715158 2.23296 142 116 103
-0.821497 0.0724172 2.25144 138 115 99
-0.790532 0.0730077 2.25327 144 124 100
-0.759568 0.0735983 2.25511 147 121 108
-0.73455 0.0745175 2.27364 145 119 106
-0.709062 0.0754458 2.2922 144 120 94
-0.677628 0.0760453 2.29406 144 116 105
-0.646194 0.0766448 2.29592 144 117 100
-0.61476 0.0772443 2.29778 134 109 102
-0.598204 0.0789385 2.35192 142 115 96
-0.561233 0.0791755 2.33605 137 117 93
-0.538426 0.0805467 2.37351 144 116 104
-0.506011 0.0811649 2.37543 139 115 89
-0.473596 0.0817832 2.37735 139 114 94
-0.445201 0.0828189 2.39809 139 113 100
-0.412524 0.0834421 2.40002 133 107 90
-0.379846 0.0840653 2.40195 138 110 99
-0.347168 0.0846885 2.40389 135 111 101
-0.317461 0.0857493 2.4247 144 119 97
-0.287229 0.08682 2.44555 140 112 98
-0.254026 0.0874532 2.44752 139 108 90
-0.223007 0.088539 2.46841 138 111 94
-0.189541 0.0891772 2.47039 135 112 94
-0.156076 0.0898155 2.47237 139 115 91
-0.12408 0.0909459 2.49432 139 112 95
-0.0903383 0.0915894 2.49632 140 113 96
-0.0565966 0.0922329 2.49832 139 112 91
-0.023495 0.0933844 2.52034 132 110 87
0.010523 0.0940332 2.52235 136 110 93
0.044541 0.094682 2.52437 132 107 87
0.078559 0.0953308 2.52638 132 114 100
0.112577 0.0959795 2.52839 124 101 85
0.146595 0.0966283 2.53041 131 110 83
0.180613 0.0972771 2.53242 133 112 85
0.215925 0.0984708 2.55457 137 110 91
0.25022 0.0991248 2.5566 134 108 81
0.286453 0.100362 2.57981 127 107 80
0.321038 0.101022 2.58186 132 108 84
0.358142 0.102275 2.60512 128 104 76
0.395827 0.10354 2.62841 127 104 73
0.430992 0.104211 2.63049 130 110 75
0.466156 0.104882 2.63257 130 110 86
0.505177 0.106198 2.65695 130 109 82
0.540646 0.106874 2.65905 121 101 77
0.576115 0.107551 2.66115 117 102 73
0.616351 0.108891 2.68559 116 97 80
0.657426 0.110272 2.71109 113 94 88
0.682521 0.10958 2.66745 101 84 76
0.71799 0.110257 2.66955 88 70 60
0.759442 0.11162 2.69407 93 78 55
0.795215 0.112302 2.69618 91 72 65
0.830988 0.112984 2.6983 79 67 53
0.85297 0.112259 2.65547 92 76 61
0.881263 0.112252 2.63608 88 69 65
0.916137 0.112917 2.63815 92 72 61
0.958464 0.114271 2.66172 98 83 60
0.978144 0.113554 2.62076 119 97 73
0.997046 0.112848 2.58075 109 92 74
1.00015 0.110879 2.5027 116 92 88
1.0253 0.110864 2.48514 119 97 76
1.03466 0.109612 2.43053 116 99 73
1.05125 0.109018 2.39641 120 101 94
1.05966 0.107852 2.34575 127 103 79
1.06805 0.106764 2.29811 122 106 80
1.09044 0.106775 2.28338 119 95 83
-1.20199 0.0904749 2.08516 137 116 99
-1.18174 0.0914581 2.10139 141 119 98
-1.15252 0.0920154 2.10312 147 124 108
-1.1233 0.0925728 2.10485 140 122 110
-1.10222 0.0935718 2.12113 144 122 108
-1.08868 0.0950243 2.15198 137 122 93
-1.06709 0.0960731 2.16929 143 124 107
-1.03702 0.0966465 2.17107 147 125 112
-1.01477 0.0977079 2.18842 142 124 104
-0.984481 0.0982855 2.19021 147 126 105
-0.954193 0.0988632 2.192 146 123 107
-0.931053 0.0999415 2.2094 143 119 107
-0.907471 0.101028 2.22683 147 120 99
-0.870036 0.101105 2.21302 145 122 104
-0.852902 0.102746 2.24709 148 126 105
-0.821937 0.103336 2.24893 138 120 100
-0.797393 0.104481 2.26741 149 126 120
-0.766193 0.105076 2.26926 148 119 103
-0.740944 0.106234 2.28778 141 121 94
-0.70951 0.106834 2.28964 138 118 93
-0.678076 0.107433 2.29151 141 120 101
-0.651887 0.10861 2.31009 145 119 94
-0.625523 0.109829 2.32968 143 122 101
-0.598661 0.111058 2.34931 145 119 102
-0.566495 0.111671 2.35121 138 117 96
-0.538887 0.112914 2.37088 144 118 101
-0.511022 0.114202 2.39156 143 116 107
-0.478344 0.114825 2.3935 137 119 95
-0.441642 0.114769 2.37663 138 121 93
-0.412989 0.116072 2.39737 144 120 96
-0.380311 0.116695 2.3993 138 112 95
-0.35087 0.118013 2.42008 146 119 100
-0.320905 0.119341 2.44089 141 115 100
-0.290414 0.120679 2.46173 137 115 91
-0.256949 0.121317 2.46371 131 112 82
-0.223483 0.121955 2.46569 137 115 101
-0.192044 0.123351 2.48759 134 106 94
-0.158302 0.123995 2.48959 135 113 92
-0.12456 0.124638 2.49158 135 113 99
-0.0908186 0.125282 2.49358 128 110 88
-0.057077 0.125925 2.49558 134 109 89
-0.0239793 0.127353 2.51758 136 109 90
0.0100387 0.128001 2.51959 129 103 88
0.0440567 0.12865 2.5216 109 91 77
0.0777048 0.1277 2.48352 146 128 116
0.110294 0.126808 2.44738 99 82 72
0.142533 0.126667 2.43025 152 135 119
0.174248 0.126515 2.41309 146 129 103
0.21034 0.129473 2.47234 137 118 101
0.246598 0.131717 2.51356 136 110 85
0.28034 0.13236 2.51555 144 120 96
0.311962 0.132167 2.49739 139 113 96
0.345427 0.132805 2.49937 143 121 97
0.381565 0.134291 2.52155 135 111 85
0.421203 0.136639 2.56397 129 107 96
0.455498 0.137293 2.566 138 118 94
0.489792 0.137947 2.56803 133 109 97
0.524087 0.138601 2.57006 119 98 77
0.57561 0.142968 2.65827 105 87 73
0.615842 0.144611 2.68269 100 78 65
0.646547 0.144321 2.66247 77 63 52
0.666391 0.142151 2.59952 97 84 68
0.690399 0.140977 2.55987 78 66 50
0.73556 0.143471 2.60362 69 62 44
0.776142 0.145081 2.62706 58 42 43
0.817304 0.146702 2.65053 77 70 52
0.839314 0.145449 2.60976 91 82 75
0.853948 0.1433 2.54951 81 63 59
0.88769 0.143944 2.55151 86 69 61
0.907599 0.142771 2.51361 85 70 63
0.933801 0.142514 2.49613 89 71 57
0.974005 0.144037 2.51754 107 85 88
0.999681 0.143771 2.50003 111 91 84
1.02483 0.143494 2.48248 119 96 88
1.0342 0.141483 2.42793 110 88 75
1.05081 0.140406 2.39385 120 102 92
1.05922 0.138537 2.34326 119 95 95
1.06762 0.136786 2.29566 126 108 72
1.09002 0.136576 2.28096 121 101 90
-1.21138 0.120081 2.09729 141 124 108
-1.18216 0.120639 2.09902 148 126 102
-1.1615 0.121837 2.11525 141 125 100
-1.13207 0.122398 2.11699 149 130 113
-1.1108 0.123608 2.13326 145 122 91
-1.09758 0.125522 2.16507 149 122 105
-1.06752 0.126095 2.16685 149 129 105
-1.03745 0.126669 2.16863 150 122 108
-1.0152 0.127951 2.18596 147 126 107
-0.984912 0.128529 2.18775 148 124 98
-0.954624 0.129106 2.18954 143 126 96
-0.924337 0.129684 2.19134 147 128 113
-0.907909 0.131713 2.22433 143 124 109
-0.877179 0.132299 2.22615 158 126 111
-0.860236 0.134445 2.26118 146 126 102
-0.829036 0.13504 2.26303 146 125 96
-0.797837 0.135635 2.26488 148 126 102
-0.772826 0.137023 2.28337 147 119 107
-0.741392 0.137623 2.28523 145 122 106
-0.715676 0.139024 2.30377 142 121 102
-0.684007 0.139628 2.30564 143 122 105
-0.657895 0.141091 2.3252 143 117 102
-0.625977 0.1417 2.32709 136 114 91
-0.604179 0.144046 2.36441 131 110 91
-0.571764 0.144664 2.36633 145 120 100
-0.544165 0.146209 2.38697 140 123 97
-0.511487 0.146832 2.38891 140 117 101
-0.478809 0.147455 2.39084 143 117 100
-0.45016 0.14902 2.41155 140 114 97
-0.41722 0.149649 2.4135 140 118 95
-0.38428 0.150277 2.41545 142 121 104
-0.35458 0.151862 2.43623 139 115 89
-0.324356 0.153457 2.45703 139 112 91
-0.293749 0.155113 2.47886 138 112 99
-0.260007 0.155756 2.48085 136 109 98
-0.226266 0.1564 2.48285 135 117 97
-0.192524 0.157043 2.48485 138 115 97
-0.158782 0.157687 2.48685 135 113 92
-0.126518 0.159374 2.50877 132 111 94
-0.091299 0.158974 2.49084 129 112 94
-0.0575573 0.159617 2.49284 133 107 90
-0.0251116 0.162381 2.53479 132 109 91
0.00918276 0.163035 2.53682 128 105 87
0.0435724 0.162618 2.51884 101 83 81
0.0768843 0.159072 2.44275 113 96 88
0.108544 0.156674 2.38859 146 131 112
0.14071 0.157287 2.39049 156 141 112
0.171968 0.156918 2.37433 159 139 114
0.203886 0.157527 2.37622 160 140 113
0.23721 0.159128 2.3962 132 95 79
0.272779 0.16179 2.43534 111 75 59
0.307466 0.16347 2.4564 154 132 108
0.340407 0.164098 2.45835 150 135 106
0.370812 0.163659 2.44114 147 127 102
0.400693 0.163211 2.42389 153 130 98
0.433108 0.163829 2.42581 139 113 86
0.465523 0.164447 2.42773 134 103 82
0.494542 0.164035 2.41144 134 106 82
0.530353 0.165683 2.43157 112 85 66
0.566879 0.167399 2.45275 109 93 78
0.621879 0.173648 2.55308 82 65 58
0.641504 0.170859 2.49519 98 81 71
0.68476 0.173775 2.53678 54 45 36
0.718501 0.174418 2.53878 73 66 58
0.741113 0.172759 2.50109 82 69 61
0.785985 0.175705 2.54278 82 68 59
0.807518 0.174025 2.50502 97 82 77
0.840721 0.174658 2.50699 73 64 55
0.867451 0.17415 2.48955 88 74 61
0.893656 0.173631 2.47209 90 75 72
0.926334 0.174254 2.47403 87 76 58
0.944873 0.172624 2.4381 77 57 58
0.969913 0.172137 2.42156 96 82 73
1.01658 0.174957 2.46035 104 92 70
1.03375 0.173354 2.42534 104 87 67
1.05036 0.171795 2.3913 115 93 80
1.05878 0.169221 2.34076 118 93 88
1.06719 0.166808 2.29322 113 96 68
1.08959 0.166378 2.27854 119 101 89
-1.22078 0.150102 2.10938 142 126 103
-1.18257 0.149819 2.09664 144 127 107
-1.16192 0.151224 2.11286 142 125 105
-1.14086 0.152637 2.1291 149 127 104
-1.11938 0.154058 2.14537 145 128 100
-1.09801 0.155544 2.16263 139 121 101
-1.07621 0.157039 2.17991 145 124 97
-1.04592 0.157616 2.18171 147 128 98
-1.01563 0.158194 2.1835 143 123 112
-0.992939 0.159705 2.20084 151 131 106
-0.96243 0.160287 2.20264 143 126 108
-0.931922 0.160869 2.20445 148 123 103
-0.915712 0.163403 2.2384 145 122 106
-0.884748 0.163993 2.24023 147 126 99
-0.86068 0.165598 2.25865 139 118 99
-0.82948 0.166193 2.2605 138 119 102
-0.804708 0.167812 2.27896 153 124 110
-0.773273 0.168411 2.28082 139 120 105
-0.741839 0.169011 2.28268 141 120 103
-0.716127 0.170647 2.30119 143 120 102
-0.684458 0.171251 2.30307 146 123 105
-0.66391 0.17407 2.34027 127 110 94
-0.631744 0.174683 2.34218 112 98 87
-0.609986 0.177592 2.38045 134 113 94
-0.572226 0.177032 2.36369 143 118 96
-0.54463 0.178839 2.38432 139 117 93
-0.511952 0.179462 2.38625 141 119 105
-0.479275 0.180085 2.38819 138 117 96
-0.450629 0.181912 2.40888 137 119 97
-0.417689 0.182541 2.41083 139 118 99
-0.388256 0.184383 2.43156 140 117 101
-0.355053 0.185016 2.43353 137 114 98
-0.324832 0.186873 2.45431 129 108 91
-0.294229 0.188805 2.47612 136 110 93
-0.260488 0.189448 2.47811 134 113 96
-0.226746 0.190092 2.48011 138 117 100
-0.193004 0.190735 2.48211 139 113 96
-0.16102 0.192694 2.50399 135 112 96
-0.127002 0.193342 2.50601 129 108 79
-0.092984 0.193991 2.50802 132 109 91
-0.0589659 0.19464 2.51004 123 100 84
-0.0255998 0.196625 2.532 119 105 94
0.00869453 0.197279 2.53403 116 94 81
0.0430881 0.196586 2.51608 100 91 76
0.0764154 0.191964 2.44008 134 115 98
0.107678 0.187572 2.36796 163 145 121
0.138318 0.185797 2.33478 168 141 130
0.170608 0.187559 2.35369 162 144 122
0.201187 0.186996 2.3385 163 151 125
0.231296 0.186424 2.32329 153 133 108
0.264055 0.188195 2.34223 158 134 110
0.29549 0.188794 2.34409 160 139 120
0.331102 0.191833 2.38118 148 131 113
0.365418 0.193701 2.40121 126 116 89
0.397585 0.194314 2.40311 141 125 99
0.426856 0.193659 2.38685 154 133 102
0.45563 0.192995 2.37056 137 111 84
0.487299 0.193599 2.37244 157 127 99
0.518968 0.194203 2.37431 155 131 97
0.550637 0.194807 2.37618 153 128 98
0.578397 0.19419 2.36083 125 110 77
0.609832 0.19479 2.36269 91 73 63
0.659553 0.200524 2.43661 81 71 69
0.691968 0.201142 2.43853 83 72 68
0.714116 0.199138 2.40386 92 82 70
0.746034 0.199747 2.40575 77 62 55
0.789214 0.202997 2.44429 88 70 66
0.815749 0.20229 2.42787 88 71 61
0.854044 0.204233 2.44813 89 73 60
0.873705 0.202182 2.4133 72 66 52
0.898997 0.201451 2.39681 95 82 66
0.924174 0.200785 2.3813 99 79 68
0.942153 0.198836 2.34838 87 69 69
0.973117 0.199426 2.35021 97 86 82
1.01128 0.2013 2.36947 93 74 67
1.04248 0.201895 2.37131 110 97 78
1.06601 0.201198 2.35571 109 94 63
1.0742 0.198051 2.30721 123 99 89
1.09683 0.197404 2.29256 116 98 84
-1.2212 0.179489 2.10699 146 126 99
-1.19177 0.180051 2.10873 143 122 105
-1.17092 0.181667 2.12494 145 130 111
-1.14128 0.182232 2.1267 138 118 109
-1.1198 0.18386 2.14295 151 127 117
-1.10692 0.186704 2.17566 140 121 104
-1.0849 0.188423 2.19294 141 118 100
-1.04635 0.187859 2.17925 144 126 104
-1.01606 0.188437 2.18104 144 121 105
-0.993373 0.190169 2.19836 152 127 105
-0.962865 0.190751 2.20017 147 121 106
-0.939513 0.192496 2.21752 145 127 105
-0.908784 0.193082 2.21934 146 125 108
-0.885189 0.194912 2.23772 145 124 107
-0.861124 0.196752 2.25611 142 121 100
-0.836589 0.1986 2.27454 149 123 106
-0.805155 0.1992 2.2764 145 124 107
-0.779916 0.201062 2.29487 141 117 113
-0.748247 0.201666 2.29675 135 111 101
-0.722639 0.203616 2.31624 139 118 99
-0.684909 0.202874 2.3005 137 119 95
-0.576264 0.184724 2.05829 35 26 21
-0.548036 0.185263 2.05996 31 25 27
-0.610451 0.210222 2.3778 131 112 95
-0.577773 0.210845 2.37973 135 114 93
-0.545095 0.211469 2.38167 137 116 89
-0.516979 0.213548 2.4023 141 118 102
-0.484038 0.214176 2.40425 134 112 89
-0.455134 0.21627 2.42494 138 112 99
-0.418158 0.215433 2.40815 138 117 90
-0.388728 0.217537 2.42887 141 116 94
-0.355526 0.21817 2.43083 133 112 95
-0.328451 0.221854 2.47138 136 108 96
-0.29471 0.222497 2.47338 135 109 96
-0.263558 0.224715 2.49519 138 110 98
-0.22954 0.225364 2.4972 136 107 91
-0.193485 0.224428 2.47937 138 110 89
-0.161504 0.226662 2.50123 129 106 88
-0.127486 0.227311 2.50325 127 101 88
-0.0934683 0.227959 2.50526 125 103 89
-0.0594502 0.228608 2.50727 118 97 78
-0.0260881 0.230869 2.52922 112 95 79
0.0082063 0.231523 2.53125 119 97 83
0.0425007 0.232177 2.53328 97 78 71
0.0762755 0.227948 2.47537 66 39 22
0.106055 0.215198 2.31337 160 144 121
0.136637 0.2144 2.29821 165 107 106
0.167601 0.214991 2.30004 165 110 113
0.198566 0.215581 2.30187 158 137 118
0.226965 0.213443 2.2706 170 151 119
0.257473 0.214025 2.27241 165 150 121
0.286295 0.213275 2.25814 159 144 113
0.316583 0.213853 2.25993 108 91 71
0.348998 0.215771 2.27783 98 86 70
0.381856 0.217697 2.29575 159 142 114
0.415317 0.219715 2.3147 155 135 110
0.446281 0.220306 2.31654 153 132 105
0.477246 0.220896 2.31837 141 121 94
0.504774 0.220041 2.30302 149 129 104
0.542845 0.223528 2.33923 160 139 112
0.566233 0.221213 2.30666 152 112 104
0.596963 0.221799 2.30848 147 77 79
0.623574 0.221007 2.29408 128 83 88
0.663032 0.22444 2.32937 106 91 72
0.703687 0.227976 2.36572 93 80 64
0.719881 0.224143 2.31576 96 76 65
0.77187 0.230657 2.38674 81 65 52
0.792439 0.228288 2.354 97 78 71
0.823639 0.228883 2.35585 98 78 67
0.860858 0.230974 2.37503 108 86 89
0.879783 0.228574 2.3422 92 78 65
0.904258 0.22766 2.32667 86 68 64
0.928659 0.226826 2.31214 111 97 84
0.952618 0.225983 2.29758 87 72 69
0.976134 0.225132 2.283 79 68 50
0.992654 0.22293 2.25302 91 76 71
1.02229 0.223495 2.25478 91 74 64
1.04496 0.222709 2.24114 109 92 66
1.0964 0.227426 2.29012 124 95 87
-1.22162 0.208877 2.1046 145 125 116
-1.19219 0.209438 2.10634 140 115 118
-1.17992 0.212523 2.13699 143 116 99
-1.15007 0.213092 2.13875 150 125 105
-1.12893 0.215015 2.15596 143 120 102
-1.10735 0.216947 2.1732 147 122 115
-1.07707 0.217525 2.17499 147 121 108
-1.04678 0.218102 2.17679 149 128 111
-1.02432 0.220051 2.19408 140 119 102
-0.993807 0.220633 2.19588 142 123 108
-0.97068 0.222594 2.21321 146 121 99
-0.947558 0.22465 2.23153 139 115 105
-0.916594 0.225241 2.23337 143 122 103
-0.885629 0.225831 2.2352 145 122 106
-0.868471 0.229389 2.27013 140 113 102
-0.837037 0.229988 2.27199 143 120 106
-0.805603 0.230588 2.27385 141 119 98
-0.780367 0.232684 2.2923 149 122 101
-0.755012 0.234878 2.31176 141 115 100
-0.723094 0.235487 2.31364 144 117 106
-0.685359 0.234496 2.29792 134 112 91
-0.576666 0.212911 2.056 21 14 22
-0.556712 0.215952 2.08511 21 17 16
-0.610916 0.242852 2.37514 137 110 93
-0.578238 0.243475 2.37708 137 111 94
-0.550388 0.245812 2.39768 135 113 92
-0.522012 0.248158 2.41831 142 120 97
-0.488809 0.248791 2.42027 134 111 95
-0.459646 0.251153 2.44095 140 115 93
-0.422404 0.250058 2.42421 134 114 89
-0.392716 0.252429 2.44491 138 108 97
-0.35925 0.253067 2.4469 142 108 106
-0.328932 0.255546 2.46864 133 107 90
-0.298061 0.258035 2.49041 129 106 92
-0.264043 0.258684 2.49243 133 109 97
-0.230025 0.259332 2.49444 126 98 95
-0.196007 0.259981 2.49646 126 103 87
-0.163754 0.262497 2.51831 126 103 89
-0.129459 0.263151 2.52034 128 105 89
-0.095165 0.263805 2.52237 116 94 80
-0.0608707 0.264459 2.5244 123 100 94
-0.0272691 0.267095 2.54734 119 95 85
0.00731547 0.267754 2.54939 111 89 76
0.0419 0.268414 2.55143 91 79 63
0.0763068 0.267075 2.53253 73 60 52
0.105611 0.246351 2.31084 114 73 79
0.13385 0.239099 2.23072 169 121 117
0.16162 0.235258 2.18648 159 119 107
0.191051 0.235819 2.18822 147 127 102
0.220482 0.236381 2.18997 160 139 118
0.252653 0.239844 2.22179 161 144 118
0.280921 0.238958 2.20851 181 152 136
0.308774 0.238064 2.19519 176 155 134
0.336212 0.237163 2.18186 159 138 107
0.361036 0.234786 2.1534 157 131 114
0.394659 0.238277 2.18532 153 137 112
0.431725 0.24326 2.23239 160 140 113
0.464579 0.245406 2.2503 155 139 114
0.494645 0.24598 2.25208 156 131 111
0.52126 0.244967 2.2377 153 135 115
0.551105 0.245537 2.23946 160 140 116
0.580951 0.246106 2.24123 152 133 103
0.603081 0.243677 2.21262 155 133 110
0.632511 0.244239 2.21436 140 122 98
0.649126 0.24028 2.17046 91 78 70
0.695852 0.246872 2.23307 97 83 80
0.730177 0.248952 2.25006 75 68 49
0.770462 0.25276 2.28437 92 78 75
0.795308 0.251714 2.26988 98 84 71
0.819712 0.250659 2.25536 89 71 71
0.861324 0.254493 2.28974 92 81 61
0.879403 0.251798 2.2589 99 84 77
0.897388 0.24929 2.23004 87 70 62
0.939093 0.252936 2.26243 87 71 71
0.962594 0.251959 2.24886 86 70 54
0.979128 0.249424 2.21992 76 61 68
1.00159 0.248427 2.20628 94 81 73
1.02364 0.247423 2.19263 99 84 77
1.05245 0.247972 2.19433 88 70 60
-1.23104 0.239725 2.11662 147 122 100
-1.21019 0.241755 2.1328 136 119 103
-1.18034 0.242324 2.13456 139 118 101
-1.1505 0.242893 2.13633 137 114 96
-1.12936 0.245037 2.15352 139 122 94
-1.11628 0.248769 2.18618 145 122 108
-1.08577 0.249351 2.18799 143 122 103
-1.06331 0.25152 2.20526 145 123 102
-1.03258 0.252106 2.20708 143 122 103
-1.00993 0.254388 2.22535 145 123 109
-0.978964 0.254979 2.22719 145 125 100
-0.947999 0.255569 2.22902 143 124 109
-0.917035 0.25616 2.23085 138 112 95
-0.88607 0.25675 2.23269 147 123 111
-0.868919 0.260777 2.26758 139 118 97
-0.837484 0.261377 2.26944 133 114 100
-0.819302 0.265532 2.30538 137 116 97
-0.780817 0.264307 2.28973 136 116 92
-0.755466 0.266749 2.30916 140 114 97
-0.729617 0.269201 2.32863 136 113 95
-0.697451 0.269814 2.33053 134 112 91
-0.585735 0.24398 2.08109 25 19 21
-0.557119 0.244526 2.08279 21 22 17
-0.611381 0.275482 2.37249 130 104 87
-0.583797 0.278075 2.39305 137 108 100
-0.550857 0.278704 2.395 133 111 90
-0.513348 0.277351 2.37829 130 108 85
-0.489282 0.281945 2.41758 130 107 91
-0.460123 0.284569 2.43823 130 109 90
-0.426657 0.285207 2.44022 130 111 81
-0.393192 0.285845 2.4422 129 111 87
-0.363154 0.288595 2.4639 129 108 89
-0.332563 0.291354 2.48564 133 106 99
-0.298545 0.292003 2.48765 127 105 92
-0.267125 0.294779 2.50944 126 105 88
-0.232831 0.295433 2.51147 125 108 82
-0.200684 0.298331 2.53429 126 104 93
-0.164242 0.296741 2.51553 119 99 92
-0.129948 0.297395 2.51756 120 101 87
-0.0956533 0.298049 2.51959 114 94 83
-0.0613589 0.298703 2.52162 113 96 76
-0.0284583 0.3039 2.56541 111 93 83
0.00641637 0.304566 2.56748 99 81 67
0.0412911 0.305231 2.56954 99 80 74
0.0756533 0.29914 2.5098 56 47 38
0.106712 0.285151 2.37814 35 23 27
0.133422 0.269121 2.22828 141 108 103
0.160455 0.262999 2.1691 152 136 111
0.187773 0.260256 2.14083 168 151 131
0.214416 0.257717 2.11451 156 138 114
0.242838 0.258259 2.11619 149 133 118
0.27273 0.260353 2.13191 109 102 76
0.303008 0.262453 2.14765 158 137 118
0.331817 0.263003 2.14936 162 142 118
0.358576 0.26199 2.13699 170 150 125
0.382705 0.259403 2.11053 169 153 120
0.408496 0.258372 2.0981 160 139 108
0.436531 0.258907 2.09976 135 111 85
0.475862 0.26575 2.15789 130 93 75
0.51437 0.271381 2.205 140 112 90
0.5438 0.271942 2.20674 129 103 90
0.569584 0.270802 2.19332 136 113 95
0.591098 0.267948 2.16471 125 62 57
0.616116 0.266902 2.15224 160 123 97
0.636762 0.264249 2.12557 146 129 111
0.664991 0.264787 2.12724 134 115 98
0.693219 0.265325 2.12891 101 84 77
0.754706 0.277597 2.23417 89 77 61
0.779246 0.276433 2.22068 102 84 72
0.798066 0.273527 2.1919 104 83 78
0.811279 0.2691 2.14984 96 78 64
0.856098 0.274634 2.19534 101 88 80
0.885114 0.275188 2.19706 107 91 76
0.896545 0.270727 2.15489 100 88 76
0.919048 0.269632 2.14228 102 84 70
0.947277 0.270171 2.14395 86 79 50
0.981811 0.272353 2.15994 84 75 66
1.00373 0.271248 2.14729 121 99 101
1.03866 0.273437 2.16331 90 71 67
-1.24046 0.270987 2.12861 142 115 106
-1.21061 0.271556 2.13037 149 126 110
-1.18992 0.273913 2.14752 143 116 105
-1.15986 0.274486 2.1493 140 121 104
-1.12979 0.27506 2.15108 135 119 96
-1.11671 0.279233 2.1837 138 117 100
-1.0862 0.279815 2.18551 145 124 103
-1.0723 0.284126 2.21917 138 116 95
-1.03301 0.282791 2.20458 138 116 102
-1.01037 0.285307 2.22284 139 115 105
-0.979404 0.285898 2.22467 140 116 92
-0.956054 0.288427 2.24297 132 108 96
-0.924855 0.289022 2.24482 137 111 94
-0.9008 0.291566 2.26316 129 109 100
-0.876276 0.294118 2.28153 130 107 99
-0.844607 0.294722 2.28341 131 105 90
-0.819756 0.297403 2.30279 128 105 91
-0.787838 0.298011 2.30468 125 101 91
-0.762242 0.300707 2.32411 120 99 82
-0.736148 0.303411 2.34357 113 90 76
-0.697909 0.301934 2.32792 112 90 77
-0.557527 0.273099 2.08046 21 17 14
-0.622566 0.312567 2.40702 95 78 71
-0.584266 0.310967 2.39038 92 72 61
-0.551326 0.311596 2.39233 103 81 68
-0.522958 0.314466 2.41292 89 65 65
-0.485445 0.312852 2.39623 88 67 64
-0.456552 0.315733 2.41685 86 71 64
-0.427134 0.318623 2.4375 82 65 57
-0.393668 0.319262 2.43948 132 106 93
-0.363634 0.322287 2.46116 128 108 84
-0.333047 0.325322 2.48288 130 103 94
-0.301908 0.328369 2.50462 124 100 98
-0.265011 0.32662 2.4869 123 99 89
-0.233319 0.329677 2.50868 118 102 86
-0.201176 0.332865 2.53149 121 98 84
-0.166592 0.333524 2.53353 124 96 92
-0.132007 0.334184 2.53558 116 94 81
-0.0974228 0.334843 2.53763 121 98 80
-0.0628383 0.335503 2.53967 109 92 74
-0.0296559 0.341286 2.58344 113 94 77
0.00550901 0.341956 2.58552 105 86 69
0.0406739 0.342627 2.5876 106 83 77
0.075169 0.333108 2.50704 44 30 27
0.106648 0.319485 2.39346 41 24 30
0.132994 0.299143 2.22584 137 126 106
0.15786 0.286743 2.12281 165 150 127
0.185589 0.285555 2.11052 171 154 134
0.210771 0.280886 2.07021 162 145 125
0.238612 0.281417 2.07186 161 145 111
0.265092 0.280328 2.06049 153 135 123
0.292754 0.280856 2.06213 86 74 58
0.322138 0.28301 2.07681 144 128 105
0.349979 0.283541 2.07845 152 133 101
0.380062 0.285831 2.09417 174 154 127
0.405663 0.284603 2.08175 172 148 124
0.425997 0.280086 2.04315 162 147 118
0.450666 0.278963 2.03167 135 111 83
0.477776 0.27948 2.03327 133 100 85
0.520238 0.288505 2.10247 99 44 37
0.548273 0.289039 2.10413 108 36 40
0.579903 0.291359 2.11993 128 75 57
0.604343 0.290109 2.10745 138 86 73
0.628397 0.288851 2.09494 151 136 107
0.648186 0.285918 2.06924 160 134 107
0.671598 0.28477 2.05769 149 127 106
0.698887 0.285291 2.0593 116 100 77
0.749274 0.294589 2.12996 95 76 72
0.782452 0.296939 2.14585 84 69 62
0.790672 0.290352 2.0916 103 89 80
0.818334 0.290879 2.09324 90 79 73
0.862189 0.296743 2.13664 97 80 73
0.878972 0.29363 2.10977 94 77 69
0.90132 0.292462 2.09816 107 86 81
0.928982 0.29299 2.09979 100 84 68
0.950341 0.29168 2.08712 80 71 54
0.971777 0.290495 2.07546 81 75 53
1.01197 0.294572 2.10471 100 93 65
-1.24088 0.300789 2.12618 141 121 94
-1.21104 0.301358 2.12795 135 110 90
-1.19035 0.303935 2.14508 138 116 102
-1.16028 0.304508 2.14686 136 119 93
-1.13894 0.307098 2.16403 134 118 93
-1.11714 0.309696 2.18122 138 116 103
-1.1037 0.314454 2.21483 137 118 103
-1.07274 0.315045 2.21666 133 114 97
-1.04177 0.315636 2.21849 136 110 93
-1.01081 0.316226 2.22032 134 106 103
-0.979845 0.316817 2.22216 82 67 64
-0.948881 0.317407 2.22399 81 61 52
-0.917916 0.317998 2.22582 69 57 57
-0.879804 0.316406 2.21118 72 57 54
-0.8629 0.321366 2.24598 71 52 54
-0.825023 0.319769 2.23132 67 60 41
-0.787616 0.318164 2.21664 58 50 37
-0.751043 0.316679 2.2029 55 44 40
-0.75005 0.328156 2.28646 56 48 45
-0.690026 0.317842 2.20651 63 51 51
-0.659518 0.318424 2.20832 53 44 35
-0.557934 0.301673 2.07814 28 23 19
-0.567992 0.32017 2.21373 54 47 39
-0.541779 0.322852 2.23119 49 38 34
-0.51105 0.323438 2.23301 60 49 47
-0.488509 0.328506 2.26814 58 46 48
-0.449591 0.324611 2.23665 63 50 42
-0.418861 0.325197 2.23847 58 49 44
-0.388132 0.325783 2.24029 56 48 35
-0.397856 0.355335 2.45642 119 99 88
-0.364115 0.355979 2.45842 126 105 86
-0.333532 0.359291 2.48011 123 100 86
-0.302396 0.362613 2.50184 126 101 81
-0.268102 0.363267 2.50387 126 97 93
-0.236253 0.366739 2.52663 117 94 80
-0.203825 0.370222 2.54942 113 96 86
-0.167084 0.368058 2.53072 122 96 83
-0.134075 0.371552 2.55355 115 98 82
-0.0992007 0.372217 2.55562 113 95 83
-0.064326 0.372882 2.55768 112 91 88
-0.0301565 0.376399 2.58058 103 85 71
0.00500839 0.37707 2.58266 108 89 75
0.0401732 0.37774 2.58475 92 75 59
0.0745272 0.364345 2.48439 49 39 29
0.105796 0.34939 2.37291 42 31 35
0.134874 0.338076 2.28815 57 46 42
0.156762 0.313394 2.10653 151 135 120
0.182533 0.308156 2.0663 169 146 130
0.208296 0.304964 2.04099 142 124 102
0.233405 0.301896 2.01663 152 134 112
0.260514 0.302413 2.01823 169 149 124
0.286203 0.301266 2.00782 165 147 123
0.313146 0.30178 2.00942 152 134 110
0.341843 0.303964 2.02305 161 145 120
0.368952 0.304481 2.02465 165 140 120
0.396061 0.304998 2.02626 165 145 118
0.423171 0.305515 2.02786 173 153 126
0.442832 0.300843 1.99224 179 154 134
0.46943 0.30135 1.99382 170 150 125
0.493052 0.300027 1.98229 132 121 91
0.516557 0.298839 1.97176 133 110 92
0.549224 0.302872 1.99854 144 121 113
0.582582 0.306919 2.02537 146 128 106
0.612937 0.309135 2.0391 157 136 107
0.63647 0.307946 2.02856 149 136 104
0.655617 0.304901 2.00484 130 92 73
0.674073 0.301843 1.98108 127 101 86
0.696252 0.300629 1.97047 126 100 87
0.75767 0.315442 2.07351 96 79 72
0.771188 0.310516 2.03654 91 78 62
0.793179 0.309162 2.02491 92 79 71
0.829812 0.313271 2.05193 105 89 74
0.856921 0.313788 2.05354 95 83 71
0.878962 0.312571 2.04292 103 87 74
0.905906 0.313085 2.04451 91 79 63
0.926999 0.311714 2.03284 92 79 71
0.953763 0.312224 2.03442 92 85 67
0.980527 0.312735 2.036 94 74 63
-1.24131 0.33059 2.12376 137 121 98
-1.22085 0.333384 2.14086 138 120 100
-1.19078 0.333957 2.14264 135 114 97
-1.16071 0.334531 2.14442 137 116 99
-1.14809 0.339578 2.17694 138 113 93
-1.12608 0.342401 2.19413 127 110 94
-1.10414 0.345373 2.21231 135 116 101
-1.07318 0.345964 2.21414 133 113 89
-1.05054 0.348949 2.23236 137 109 95
-1.01934 0.349544 2.23421 100 81 75
-0.928992 0.33204 2.11246 72 66 52
-0.892837 0.330476 2.0997 54 51 34
-0.863613 0.331034 2.10143 61 47 44
-0.83439 0.331591 2.10316 75 56 50
-0.805166 0.332148 2.10489 65 53 57
-0.781838 0.334847 2.12117 66 52 49
-0.752408 0.335408 2.12291 72 58 58
-0.722977 0.335969 2.12465 60 57 50
-0.688273 0.334378 2.11181 62 53 46
-0.669182 0.339248 2.14273 67 52 47
-0.639544 0.339814 2.14449 59 48 52
-0.59595 0.333885 2.10238 31 26 23
-0.56249 0.33227 2.08947 35 26 27
-0.55063 0.341509 2.14975 47 38 33
-0.525022 0.344251 2.16616 61 47 47
-0.495177 0.34482 2.16793 55 44 38
-0.458101 0.341021 2.14033 59 45 42
-0.432078 0.34377 2.15677 63 52 46
-0.40244 0.344336 2.15852 62 51 49
-0.372802 0.344901 2.16028 60 52 41
-0.402052 0.391961 2.47332 106 88 84
-0.368034 0.39261 2.47534 118 98 87
-0.340499 0.399294 2.51768 115 97 85
-0.305915 0.399953 2.51973 113 93 84
-0.27133 0.400613 2.52177 120 104 81
-0.239196 0.40438 2.54453 116 94 81
-0.204321 0.405046 2.54659 117 98 84
-0.169447 0.405711 2.54866 115 94 75
-0.134572 0.406376 2.55072 110 92 78
-0.0996972 0.407041 2.55279 103 83 76
-0.0648225 0.407706 2.55485 103 84 77
-0.0314002 0.414803 2.59953 104 84 77
0.00406868 0.415479 2.60163 104 79 74
0.0396726 0.412854 2.58189 100 82 80
0.0738934 0.39503 2.46178 41 33 31
0.105338 0.381509 2.3703 42 33 38
0.135033 0.371561 2.30255 47 37 35
0.157046 0.34389 2.11816 120 102 82
0.182136 0.335957 2.06404 141 125 102
0.206908 0.330421 2.02579 150 133 107
0.231932 0.327142 2.00245 151 136 113
0.254909 0.321873 1.96607 148 132 106
0.277071 0.316887 1.93164 169 150 133
0.302993 0.317382 1.93317 163 143 118
0.330664 0.319712 1.94673 160 142 122
0.358667 0.322049 1.9603 170 149 130
0.387001 0.324392 1.97389 156 141 110
0.41342 0.324896 1.97546 160 138 115
0.439838 0.325399 1.97702 172 152 117
0.466257 0.325903 1.97859 168 151 123
0.487185 0.322697 1.95599 169 131 118
0.507693 0.319634 1.93437 168 129 122
0.530386 0.318264 1.9238 153 131 110
0.555989 0.318752 1.92531 147 132 99
0.588125 0.32282 1.95005 147 130 104
0.614046 0.323314 1.95159 148 127 100
0.643707 0.325682 1.96526 112 30 34
0.665888 0.324303 1.95466 90 17 26
0.680274 0.31947 1.92175 106 44 45
0.701841 0.318229 1.9121 112 40 43
0.72714 0.318711 1.9136 100 64 40
0.756628 0.320926 1.92627 104 91 75
0.791154 0.32504 1.95115 98 81 73
0.831216 0.331061 1.98827 103 88 83
0.857469 0.331562 1.98983 102 87 66
0.883722 0.332063 1.99138 105 87 75
0.904576 0.330658 1.9807 104 86 82
0.930663 0.331155 1.98225 102 85 67
0.96248 0.333565 1.99605 123 103 94
-1.25134 0.362833 2.13664 131 116 93
-1.22127 0.363406 2.13842 128 109 92
-1.20037 0.366429 2.15552 131 114 104
-1.17009 0.367006 2.15732 137 116 115
-1.14852 0.370042 2.17446 133 112 83
-1.13555 0.375702 2.20796 137 109 105
-1.11338 0.378913 2.22614 123 108 85
-1.08218 0.379508 2.22798 125 106 92
-1.05098 0.380103 2.22983 125 101 97
-0.88919 0.347925 2.02616 68 60 49
-0.860961 0.348464 2.02783 62 49 43
-0.838818 0.351182 2.04302 63 53 51
-0.804504 0.349541 2.03117 60 51 54
-0.787673 0.354454 2.05994 74 56 52
-0.753552 0.352808 2.04807 68 57 51
-0.709195 0.346766 2.00904 56 49 43
-0.671483 0.343057 1.98449 41 35 39
-0.673211 0.356637 2.06671 66 52 49
-0.644595 0.357183 2.06841 61 57 48
-0.611442 0.355519 2.05648 69 55 54
-0.578676 0.353848 2.04454 54 44 42
-0.5629 0.361037 2.08713 52 47 43
-0.538331 0.363966 2.10346 50 43 37
-0.501518 0.359912 2.07688 64 54 45
-0.476473 0.362685 2.09225 89 77 65
-0.447664 0.363235 2.09395 59 48 44
-0.418855 0.363784 2.09566 64 52 54
-0.390046 0.364334 2.09736 58 47 45
-0.364234 0.367286 2.11377 61 51 42
-0.332428 0.365433 2.10077 67 51 54
-0.368518 0.426578 2.47257 104 83 66
-0.344316 0.437209 2.5355 92 74 60
-0.306407 0.434487 2.51692 111 88 72
-0.271823 0.435147 2.51896 112 89 81
-0.239692 0.439204 2.5417 113 94 88
-0.204818 0.439869 2.54376 112 94 84
-0.169943 0.440534 2.54583 112 94 82
-0.135068 0.441199 2.54789 109 90 76
-0.101487 0.445284 2.57071 101 87 78
-0.065319 0.44253 2.55202 103 89 78
-0.0319051 0.45022 2.59665 102 82 81
0.00400715 0.447296 2.57695 104 86 82
0.0390326 0.451572 2.60085 91 71 70
0.0731327 0.422208 2.42135 50 38 40
0.104497 0.410669 2.34981 47 34 41
0.133992 0.399914 2.28312 45 34 32
0.161776 0.389783 2.22029 46 35 31
0.18174 0.363758 2.06178 132 115 97
0.205524 0.355518 2.01062 157 135 122
0.229289 0.349903 1.97533 159 146 127
0.253282 0.34626 1.95195 159 143 120
0.275404 0.340942 1.91855 159 138 119
0.298141 0.337603 1.89708 165 147 125
0.320388 0.334419 1.87657 155 136 119
0.345536 0.334899 1.87806 166 139 118
0.370683 0.335378 1.87955 169 133 119
0.39583 0.335858 1.88104 158 130 116
0.423188 0.338184 1.89357 157 133 121
0.450849 0.340515 1.90612 172 123 119
0.476301 0.341001 1.90763 175 100 120
0.504418 0.343341 1.9202 178 96 110
0.524385 0.340114 1.89956 175 150 128
0.543744 0.336875 1.87889 171 152 122
0.565618 0.335488 1.86927 168 143 123
0.590461 0.335961 1.87074 161 139 118
0.615304 0.336435 1.87221 151 127 101
0.650882 0.342526 1.90705 148 86 87
0.672451 0.341133 1.89742 155 104 109
0.689835 0.337857 1.87662 163 132 112
0.710644 0.336449 1.86695 150 124 101
0.727344 0.333324 1.8471 148 127 106
0.755689 0.335504 1.8587 94 77 59
0.802678 0.345421 1.91604 106 88 86
0.837261 0.349689 1.9399 108 93 70
0.858071 0.348282 1.93023 97 86 66
0.888468 0.350666 1.94294 105 88 72
0.908973 0.349253 1.93324 107 89 85
0.929175 0.347834 1.92352 98 80 78
-1.25177 0.392855 2.1342 127 101 88
-1.2217 0.393428 2.13597 126 107 100
-1.20997 0.399342 2.16837 131 113 93
-1.17946 0.399924 2.17018 128 108 84
-1.15768 0.403184 2.18732 129 105 101
-1.13599 0.406621 2.20545 123 111 97
-1.11383 0.410066 2.2236 124 105 88
-1.08263 0.410661 2.22545 122 98 86
-1.05143 0.411257 2.2273 102 86 73
-0.867331 0.357689 1.92016 61 55 43
-0.858142 0.364621 1.95835 80 60 61
-0.842967 0.369711 1.986 62 48 35
-0.815305 0.370239 1.98764 69 59 47
-0.781748 0.36839 1.97576 67 60 44
-0.770976 0.375885 2.01702 65 55 43
-0.732319 0.371822 1.99255 70 55 52
-0.689473 0.365526 1.95546 20 16 13
-0.667119 0.368264 1.96966 25 21 18
-0.649333 0.373404 1.99747 59 48 46
-0.62167 0.373932 1.9991 60 50 38
-0.594008 0.37446 2.00074 62 53 44
-0.561999 0.372581 1.98877 61 52 47
-0.538684 0.375515 2.00402 168 157 153
-0.507062 0.373628 1.99202 204 189 192
-0.479593 0.374152 1.99364 138 126 130
-0.459016 0.379346 2.02161 107 94 101
-0.421517 0.372948 1.9842 106 91 96
-0.406519 0.382836 2.03859 98 87 93
-0.369718 0.376248 2.00015 54 49 46
-0.350449 0.383906 2.04191 53 43 31
-0.319807 0.382001 2.02985 66 53 44
-0.372449 0.464037 2.48942 87 71 58
-0.344813 0.472032 2.53267 97 75 64
-0.309938 0.472697 2.53473 106 83 75
-0.275064 0.473362 2.5368 109 88 87
-0.242647 0.477715 2.55952 102 83 68
-0.205314 0.474693 2.54093 113 91 77
-0.172318 0.479056 2.56369 105 83 60
-0.137153 0.479727 2.56577 106 88 78
-0.101988 0.480397 2.56785 113 91 80
-0.0668232 0.481068 2.56993 106 83 69
-0.0324101 0.485636 2.59377 108 86 75
0.00261103 0.490216 2.61764 99 81 69
0.0385276 0.486989 2.59797 91 76 69
0.0728022 0.458481 2.43751 46 42 33
0.104423 0.445748 2.36508 37 30 22
0.133551 0.430833 2.2806 46 38 36
0.161348 0.419806 2.21785 38 35 30
0.185722 0.404089 2.12913 49 39 30
0.204221 0.380437 1.99648 147 129 107
0.227738 0.374128 1.96022 167 146 125
0.249268 0.366182 1.91493 174 144 118
0.272328 0.362532 1.89351 170 152 132
0.294883 0.35905 1.87304 160 140 115
0.31843 0.357543 1.86354 168 143 123
0.33817 0.352051 1.83201 161 141 114
0.359247 0.348897 1.81345 170 138 123
0.38351 0.34936 1.81488 175 119 122
0.409781 0.351639 1.82634 177 121 124
0.434182 0.352104 1.82779 174 126 126
0.463379 0.356395 1.85032 141 82 76
0.48807 0.356866 1.85178 141 61 74
0.515577 0.359347 1.86431 153 103 94
0.534485 0.355796 1.84363 172 148 124
0.559024 0.356264 1.84509 177 155 131
0.577615 0.353062 1.82637 171 154 126
0.601878 0.353525 1.82781 167 139 117
0.622565 0.351963 1.81813 152 136 102
0.646676 0.352423 1.81956 150 128 105
0.678194 0.356758 1.84223 144 125 95
0.69893 0.355375 1.83355 161 145 122
0.719009 0.353802 1.82384 162 141 122
0.731295 0.348702 1.79485 150 133 105
0.759072 0.35101 1.8064 118 102 76
0.795982 0.357226 1.8393 95 78 71
0.838541 0.365506 1.88343 103 90 71
0.858441 0.36393 1.87371 106 95 77
0.883132 0.364401 1.87517 101 81 70
0.913071 0.366928 1.88784 101 75 74
-1.26181 0.425759 2.14702 126 109 93
-1.24092 0.429224 2.16409 133 112 91
-1.21041 0.429806 2.1659 128 110 86
-1.18885 0.433283 2.18301 130 109 106
-1.15812 0.433869 2.18483 131 113 99
-1.14547 0.440625 2.21922 125 109 96
-1.12308 0.44431 2.23737 134 106 92
-1.09164 0.444909 2.23923 118 98 89
-0.888592 0.381716 1.90488 81 64 57
-0.861993 0.382223 1.90645 73 63 53
-0.835395 0.38273 1.90802 74 60 59
-0.808797 0.383238 1.9096 69 58 52
-0.782199 0.383745 1.91117 73 62 66
-0.760656 0.386455 1.92433 74 65 60
-0.739188 0.389356 1.93846 71 61 49
-0.707128 0.387476 1.92749 69 57 43
-0.685301 0.390383 1.94165 61 46 53
-0.6536 0.388497 1.93066 58 48 46
-0.626836 0.389007 1.93225 68 58 49
-0.596012 0.387296 1.9222 72 69 52
-0.573308 0.390028 1.93542 69 63 51
-0.546544 0.390539 1.937 62 56 56
-0.51978 0.391049 1.93858 56 46 44
-0.500093 0.396215 1.96449 71 56 53
-0.472983 0.396732 1.9661 58 47 45
-0.445874 0.397249 1.9677 56 53 48
-0.415865 0.395522 1.9576 50 45 39
-0.394617 0.400718 1.9836 53 45 43
-0.367328 0.401238 1.98522 41 32 35
-0.340039 0.401759 1.98683 47 37 35
-0.31275 0.402279 1.98845 51 42 45
-0.376561 0.502236 2.50721 84 62 51
-0.345309 0.506856 2.52984 100 77 69
-0.310435 0.507521 2.5319 92 73 66
-0.278313 0.512157 2.55459 99 79 72
-0.243148 0.512828 2.55667 101 76 72
-0.207983 0.513499 2.55875 107 89 79
-0.172818 0.514169 2.56083 107 89 75
-0.139321 0.519024 2.58459 105 86 79
-0.102489 0.515511 2.565 102 89 73
-0.0673238 0.516181 2.56708 103 87 74
-0.032915 0.521053 2.59089 96 77 63
0.00255384 0.52173 2.59299 94 75 69
0.0378746 0.526619 2.61685 90 73 65
0.0727475 0.502949 2.49323 36 28 26
0.104341 0.481324 2.3803 32 20 30
0.13252 0.458484 2.26123 47 39 36
0.160143 0.446747 2.19953 38 25 32
0.185312 0.432856 2.12679 51 39 43
0.204752 0.409658 2.00622 127 109 105
0.225202 0.395868 1.93419 129 85 76
0.246514 0.38746 1.88993 132 68 56
0.269377 0.383681 1.86951 169 151 141
0.291633 0.37989 1.84906 172 155 137
0.313281 0.376087 1.82857 169 151 137
0.33623 0.374608 1.82003 181 160 139
0.357 0.370981 1.80048 181 162 145
0.37551 0.365585 1.77188 182 156 141
0.399206 0.366037 1.77329 168 142 119
0.422903 0.366489 1.77469 172 144 120
0.451163 0.37086 1.79615 168 146 132
0.472716 0.369355 1.78753 179 149 125
0.493993 0.367845 1.7789 155 103 89
0.517689 0.368297 1.7803 135 92 73
0.547054 0.372689 1.80183 161 147 118
0.568055 0.371173 1.79318 156 140 114
0.588779 0.369653 1.78451 164 144 117
0.612475 0.370104 1.78591 166 146 119
0.633124 0.368774 1.77823 155 134 117
0.653171 0.36724 1.76952 157 138 121
0.683565 0.37146 1.79012 146 132 106
0.707262 0.371912 1.79152 162 142 117
0.719533 0.366589 1.76355 162 147 124
0.739159 0.365239 1.7558 155 138 120
0.75432 0.361888 1.7379 147 126 99
0.789421 0.367922 1.76769 105 87 83
0.830237 0.376174 1.8087 107 93 80
0.863332 0.380637 1.83045 97 84 68
0.882675 0.37909 1.8217 105 88 72
-1.27186 0.459106 2.15981 131 104 97
-1.25075 0.462795 2.17687 124 109 90
-1.22002 0.463381 2.17869 129 110 104
-1.18929 0.463967 2.18051 131 109 85
-1.16784 0.467868 2.19859 132 107 100
-1.14592 0.471779 2.21669 129 107 93
-1.11472 0.472374 2.21854 112 100 88
-1.08352 0.472969 2.22038 111 98 81
-0.853652 0.394158 1.83363 81 71 72
-0.844734 0.401518 1.86876 83 69 69
-0.808 0.397494 1.8482 75 68 52
-0.782231 0.397986 1.84972 75 62 71
-0.76125 0.400645 1.86184 57 50 40
-0.740386 0.403508 1.87494 56 50 50
-0.724082 0.408749 1.89963 70 59 55
-0.692938 0.406878 1.88961 57 52 49
-0.671245 0.409757 1.90275 59 51 49
-0.644826 0.410261 1.90432 54 49 43
-0.614179 0.40838 1.89427 52 45 39
-0.591989 0.411269 1.90745 48 38 36
-0.569792 0.414362 1.92161 48 34 31
-0.539152 0.412276 1.91057 44 35 36
-0.516596 0.415377 1.92476 46 37 32
-0.493397 0.418284 1.938 41 37 36
-0.466633 0.418795 1.93958 46 42 31
-0.44626 0.424319 1.9655 39 27 27
-0.419151 0.424836 1.9671 46 35 31
-0.395005 0.427967 1.98138 38 28 26
-0.367716 0.428487 1.983 37 38 22
-0.340427 0.429008 1.98462 38 29 24
-0.313138 0.429528 1.98623 38 33 29
-0.377053 0.53677 2.5044 77 63 50
-0.345806 0.541679 2.52701 74 63 41
-0.310931 0.542344 2.52907 98 78 71
-0.278814 0.547271 2.55173 90 71 65
-0.243649 0.547941 2.55381 96 77 70
-0.208484 0.548612 2.55589 103 82 77
-0.175295 0.553764 2.57961 106 88 74
-0.138154 0.549953 2.56006 102 80 66
-0.104358 0.555117 2.58381 100 82 72
-0.0688888 0.555794 2.58591 102 84 70
-0.0349753 0.565684 2.6324 99 86 69
0.00159248 0.561657 2.61183 95 77 65
0.0372059 0.567061 2.63667 85 70 51
0.0729865 0.558499 2.5943 28 21 11
0.104273 0.517602 2.39647 23 21 24
0.13153 0.485871 2.24288 43 34 35
0.159718 0.476549 2.1971 47 37 38
0.184032 0.45873 2.11056 43 34 35
0.208393 0.447691 2.05665 50 34 35
0.223753 0.419431 1.92015 89 21 22
0.243872 0.408312 1.86598 166 134 123
0.265144 0.401938 1.83462 168 154 127
0.284324 0.393677 1.79424 181 156 136
0.306984 0.392055 1.78569 177 159 135
0.329368 0.390427 1.77713 169 147 123
0.349922 0.386917 1.75957 162 144 122
0.371629 0.385276 1.75097 177 159 139
0.393059 0.383631 1.74235 168 143 121
0.414428 0.38219 1.73472 164 136 115
0.437599 0.382632 1.73609 165 145 108
0.458595 0.381183 1.72844 157 136 107
0.483942 0.383515 1.73883 178 165 131
0.507114 0.383957 1.7402 138 127 109
0.527736 0.382502 1.73253 155 124 104
0.550783 0.382941 1.73389 161 142 109
0.573831 0.383381 1.73526 157 144 112
0.596878 0.383821 1.73662 152 136 103
0.61654 0.382141 1.7279 157 142 113
0.639449 0.382578 1.72926 159 136 120
0.659063 0.381104 1.72152 143 126 100
0.685267 0.383452 1.73197 146 133 88
0.715657 0.387935 1.75255 142 121 100
0.731085 0.384326 1.73468 153 138 107
0.746408 0.380921 1.71779 154 132 118
0.765152 0.379429 1.71001 135 108 87
0.784095 0.378147 1.70322 102 81 64
0.802355 0.376647 1.6954 107 90 82
0.84563 0.386511 1.74146 96 81 60
-1.28191 0.492893 2.17256 134 112 98
-1.25118 0.49348 2.17438 128 111 91
-1.22045 0.494066 2.1762 122 105 97
-1.18972 0.494652 2.17802 123 103 94
-1.16828 0.498787 2.19607 114 103 75
-1.15541 0.506486 2.23041 125 108 90
-1.13278 0.510644 2.24853 119 101 87
-1.13795 0.526549 2.32031 53 43 42
-0.859905 0.422243 1.84305 45 37 26
-0.828413 0.420213 1.83307 37 37 29
-0.808367 0.423226 1.8461 45 41 42
-0.782598 0.423717 1.84763 40 35 32
-0.761619 0.426529 1.85973 46 34 38
-0.735698 0.427023 1.86127 43 32 28
-0.71467 0.430055 1.87436 35 26 19
-0.69804 0.435633 1.89904 46 34 34
-0.671621 0.436137 1.90061 43 34 29
-0.645202 0.436641 1.90217 38 31 21
-0.618784 0.437144 1.90374 31 31 23
-0.596769 0.440414 1.91788 37 32 29
-0.570171 0.440921 1.91945 31 21 20
-0.543573 0.441429 1.92103 35 27 24
-0.520542 0.444499 1.93424 36 25 29
-0.497463 0.447789 1.94844 33 23 24
-0.473755 0.450871 1.96169 31 23 10
-0.449972 0.454175 1.97594 27 27 17
-0.422683 0.454695 1.97755 35 28 20
-0.395394 0.455216 1.97917 40 27 18
-0.368105 0.455736 1.98078 33 28 22
-0.343423 0.459057 1.99508 45 33 33
-0.315954 0.459581 1.99671 38 33 27
-0.381177 0.575838 2.52211 77 53 51
-0.346302 0.576503 2.52417 84 67 59
-0.314479 0.581713 2.54679 82 60 49
-0.282207 0.587152 2.57043 90 69 64
-0.244149 0.583055 2.55096 83 70 53
-0.208984 0.583725 2.55304 93 78 55
-0.1758 0.589181 2.57673 101 81 70
-0.140331 0.589858 2.57883 99 81 67
-0.106235 0.595331 2.60257 103 84 77
-0.0704624 0.596013 2.60469 96 80 67
-0.0354891 0.601722 2.62947 95 77 63
0.000601535 0.60241 2.6316 97 74 66
0.0365283 0.608137 2.65644 92 77 70
0.0724816 0.593916 2.59142 27 20 12
0.104977 0.562749 2.45017 33 25 23
0.135215 0.54272 2.35914 32 27 23
0.158571 0.503048 2.17983 48 42 42
0.183624 0.487304 2.10824 48 38 46
0.207996 0.475492 2.05439 50 34 37
0.228849 0.458791 1.9786 56 30 31
0.243514 0.433422 1.86394 156 122 120
0.262331 0.421943 1.81173 152 141 109
0.281359 0.413318 1.77237 175 157 133
0.302442 0.409555 1.75486 181 164 136
0.32284 0.40556 1.73632 182 160 136
0.343031 0.401999 1.71974 96 47 51
0.364215 0.400211 1.71112 157 92 96
0.385323 0.39864 1.70348 153 87 88
0.404256 0.395055 1.68683 154 84 84
0.426792 0.395485 1.68817 142 76 78
0.445221 0.39211 1.67247 157 133 109
0.467522 0.392535 1.67379 160 147 113
0.485246 0.389147 1.65805 134 114 103
0.507313 0.389568 1.65936 93 82 60
0.542143 0.399658 1.70388 145 124 103
0.562008 0.398064 1.69617 156 129 100
0.584544 0.398494 1.6975 162 142 118
0.60708 0.398924 1.69884 167 145 122
0.629615 0.399354 1.70017 162 146 113
0.652151 0.399783 1.70151 157 139 127
0.668231 0.396363 1.68567 152 128 104
0.690532 0.396789 1.68699 159 131 110
0.712833 0.397214 1.68831 155 133 110
0.735134 0.397639 1.68963 143 130 98
0.75352 0.396017 1.68183 165 141 115
0.772106 0.394618 1.67503 161 134 104
0.790008 0.392986 1.66721 146 130 104
0.81195 0.393405 1.66851 136 112 84
-1.28235 0.523578 2.17006 123 104 97
-1.25162 0.524164 2.17188 127 105 107
-1.22089 0.52475 2.1737 127 100 91
-1.19968 0.529116 2.19172 119 96 80
-1.178 0.533491 2.20977 127 108 94
-1.15585 0.537874 2.22785 120 97 83
-1.13324 0.542267 2.24596 127 100 89
-1.11065 0.546892 2.26505 98 85 77
-0.860272 0.447974 1.84096 37 25 37
-0.834503 0.448465 1.84249 44 34 33
-0.808734 0.448957 1.84401 42 33 36
-0.787909 0.451917 1.85609 42 36 38
-0.767216 0.455108 1.86915 37 25 25
-0.741129 0.455606 1.8707 35 28 20
-0.724834 0.461509 1.89533 38 29 34
-0.698416 0.462013 1.8969 36 27 20
-0.671997 0.462517 1.89846 39 30 25
-0.645579 0.46302 1.90003 39 29 28
-0.623746 0.466466 1.91414 35 30 26
-0.601215 0.469692 1.92731 40 35 31
-0.57055 0.467481 1.91729 48 38 37
-0.547687 0.470713 1.93048 37 25 29
-0.520923 0.471223 1.93206 40 35 31
-0.501251 0.477424 1.95789 38 35 30
-0.477649 0.480903 1.97211 42 33 28
-0.45036 0.481424 1.97372 40 23 31
-0.423071 0.481944 1.97534 39 27 27
-0.398751 0.485437 1.9896 40 30 20
-0.371283 0.485961 1.99123 40 29 25
-0.343814 0.486485 1.99285 36 25 21
-0.316345 0.487009 1.99448 38 29 24
-0.381674 0.610661 2.51928 72 55 45
-0.350145 0.616156 2.54186 75 63 49
-0.31498 0.616827 2.54394 84 66 56
-0.279815 0.617497 2.54602 87 66 63
-0.24465 0.618168 2.5481 82 64 52
-0.211774 0.623921 2.57175 88 69 54
-0.176305 0.624598 2.57385 92 73 66
-0.142517 0.630369 2.59755 103 81 70
-0.106745 0.631051 2.59966 97 73 71
-0.0709717 0.631733 2.60178 98 81 71
-0.0368069 0.643104 2.64917 101 80 75
-0.000398461 0.643798 2.65133 102 82 83
0.0360099 0.644492 2.65348 90 71 67
0.0722689 0.639825 2.63295 32 23 24
0.1045 0.596166 2.44745 32 29 22
0.135372 0.579045 2.37432 38 30 28
0.158149 0.532643 2.17742 52 39 46
0.184082 0.519156 2.11977 45 36 19
0.206617 0.500245 2.03924 44 30 29
0.230703 0.491384 2.00122 48 43 39
0.244291 0.461117 1.87281 120 103 87
0.260813 0.443956 1.79982 154 136 124
0.278534 0.432643 1.75155 155 140 117
0.299213 0.428377 1.73305 175 158 130
0.318071 0.422212 1.70655 149 98 94
0.339429 0.420522 1.69894 111 24 30
0.358864 0.416699 1.68233 185 125 133
0.3798 0.415234 1.67568 187 137 138
0.402225 0.415662 1.67701 190 140 141
0.420555 0.411817 1.66034 192 120 134
0.4408 0.410339 1.65365 184 148 132
0.460569 0.408619 1.64594 183 166 140
0.478207 0.405227 1.6312 180 157 126
0.499927 0.405641 1.63249 164 148 122
