ply
format ascii 1.0
element vertex 1324
property float x
property float y
property float z
property uchar red
property uchar green
property uchar blue
end_header
-1.27637 0.605404 2.19658 118 106 84
-1.25504 0.610431 2.21465 117 94 63
-1.214 0.606858 2.20057 119 102 94
-1.1922 0.611895 2.21868 120 101 87
-1.17963 0.621514 2.25389 123 98 101
-1.14772 0.622257 2.25594 117 98 91
-1.11582 0.623 2.25798 111 98 79
-0.868178 0.513135 1.84727 43 30 22
-0.848066 0.516801 1.86035 38 31 23
-0.827623 0.520474 1.87346 28 24 21
-0.801381 0.521086 1.87514 39 31 28
-0.775138 0.521697 1.87682 36 32 21
-0.748896 0.522309 1.8785 38 24 23
-0.737979 0.532421 1.91557 30 25 19
-0.706421 0.529959 1.9058 38 28 26
-0.684472 0.533668 1.919 41 31 30
-0.653245 0.531198 1.90921 25 24 22
-0.630965 0.534915 1.92243 35 27 25
-0.608698 0.538898 1.93664 39 30 33
-0.585741 0.54263 1.94991 36 27 28
-0.554832 0.540153 1.94009 27 27 19
-0.527899 0.54078 1.94182 28 25 20
-0.508213 0.5479 1.96766 40 28 28
-0.484524 0.551916 1.98195 35 26 21
-0.457066 0.552555 1.98371 40 31 26
-0.429608 0.553195 1.98547 43 36 28
-0.405436 0.557489 2.00079 37 30 20
-0.380655 0.56153 2.01515 38 29 22
-0.352824 0.562178 2.01694 41 36 32
-0.319777 0.555754 1.99252 30 25 21
-0.392248 0.702474 2.53537 75 58 51
-0.36074 0.70907 2.55901 82 64 52
-0.325285 0.709896 2.56129 100 81 75
-0.28983 0.710722 2.56356 112 96 83
-0.257107 0.717346 2.58728 115 99 74
-0.221348 0.718179 2.58957 121 103 89
-0.185589 0.719013 2.59187 127 110 92
-0.151733 0.72593 2.61665 122 99 91
-0.115656 0.72677 2.61896 130 115 96
-0.0795797 0.727611 2.62127 126 106 95
-0.0444528 0.734558 2.64613 125 104 101
-0.0086906 0.741519 2.67103 117 101 88
0.0280212 0.742374 2.67339 114 94 87
0.0647331 0.74323 2.67574 109 88 83
0.101445 0.744085 2.67809 79 64 67
0.130547 0.671758 2.41063 30 26 17
0.158235 0.638832 2.28856 26 20 22
0.18488 0.617604 2.20967 26 22 19
0.204761 0.578901 2.06645 41 31 29
0.226227 0.558352 1.99017 50 42 31
0.247156 0.54232 1.93057 50 41 32
0.268144 0.530553 1.8867 53 38 41
0.288109 0.519295 1.84473 105 84 63
0.291097 0.477266 1.68962 151 136 113
0.308425 0.468345 1.65633 161 143 123
0.327773 0.464266 1.64086 157 139 115
0.343776 0.455846 1.60945 171 149 128
0.362157 0.452011 1.5949 173 158 129
0.380304 0.448438 1.58132 177 160 130
0.401353 0.448928 1.58267 178 162 126
0.418643 0.445068 1.56805 177 160 140
0.43773 0.443648 1.56239 173 152 125
0.456361 0.44195 1.55573 166 147 117
0.473113 0.43861 1.54304 162 145 119
0.491219 0.436901 1.53634 166 152 117
0.511536 0.437374 1.53764 174 151 119
0.531853 0.437847 1.53894 171 150 121
0.547527 0.434482 1.52619 158 144 115
0.572487 0.438794 1.54155 165 141 115
0.595679 0.441466 1.5509 170 146 118
0.616106 0.441942 1.55221 176 152 126
0.636534 0.442418 1.55352 178 152 127
0.650951 0.438757 1.5397 182 154 130
0.66827 0.437296 1.53393 170 145 123
0.682398 0.433895 1.52107 162 125 117
0.699233 0.432422 1.51527 140 91 86
0.719067 0.432884 1.51654 121 71 62
0.748766 0.439171 1.53909 148 117 99
-1.31844 0.640337 2.20789 123 99 89
-1.28702 0.64107 2.2099 118 100 80
-1.24574 0.637267 2.19586 123 99 87
-1.23381 0.647074 2.23 121 97 93
-1.20215 0.647811 2.23203 117 103 77
-1.18019 0.653367 2.25111 114 100 89
-1.15773 0.658935 2.27022 122 103 97
-1.12558 0.659684 2.27229 112 95 79
-0.863166 0.536048 1.83456 36 28 26
-0.848527 0.542835 1.85808 41 26 21
-0.828087 0.546674 1.87117 38 27 33
-0.807315 0.550521 1.88428 38 31 23
-0.780907 0.551136 1.88598 34 24 22
-0.754499 0.551752 1.88767 31 26 20
-0.738452 0.559131 1.91324 42 27 30
-0.711698 0.559755 1.91496 34 24 23
-0.684945 0.560378 1.91667 41 31 32
-0.66304 0.564532 1.93084 28 28 20
-0.636107 0.565159 1.93257 35 24 28
-0.609174 0.565787 1.93429 36 31 27
-0.58622 0.569685 1.94755 40 28 30
-0.559121 0.570316 1.94928 34 30 27
-0.535974 0.574498 1.96353 39 34 28
-0.512468 0.578689 1.9778 38 28 29
-0.488878 0.583162 1.99306 42 32 30
-0.461227 0.583806 1.99483 31 21 12
-0.433576 0.584451 1.9966 35 26 17
-0.408978 0.588667 2.01094 32 22 21
-0.378273 0.585739 2.00015 42 33 28
-0.353316 0.589964 2.01451 30 19 13
-0.325486 0.590612 2.0163 39 30 23
-0.389097 0.731771 2.51193 88 76 62
-0.361367 0.744467 2.55592 98 81 65
-0.325912 0.745293 2.5582 98 78 77
-0.290457 0.746119 2.56047 93 72 67
-0.257739 0.753047 2.58417 98 82 82
-0.224523 0.760266 2.60888 105 88 80
-0.188447 0.761107 2.61119 104 86 76
-0.15237 0.761948 2.6135 112 88 76
-0.116294 0.762788 2.61582 110 84 83
-0.0802175 0.763629 2.61813 112 88 84
-0.0450962 0.770893 2.64296 111 96 75
-0.00870202 0.771741 2.64529 112 86 71
0.0276921 0.772589 2.64763 102 80 66
0.0640841 0.779882 2.67254 87 67 56
0.10048 0.774285 2.6523 69 49 42
0.135608 0.762212 2.60939 25 21 22
0.157684 0.669968 2.28584 27 26 22
0.185231 0.652114 2.22281 34 29 26
0.208128 0.622662 2.11923 27 27 17
0.226744 0.588627 1.99967 53 37 40
0.245536 0.564965 1.91645 49 44 40
0.267694 0.555953 1.88449 52 42 41
0.28767 0.544088 1.84257 48 40 38
0.289454 0.49733 1.67873 115 106 91
0.306819 0.488206 1.64647 162 145 127
0.324735 0.481618 1.62307 164 141 123
0.341961 0.475013 1.59963 171 157 128
0.358882 0.468962 1.57814 177 154 138
0.375169 0.462896 1.5566 182 164 144
0.392587 0.459099 1.54299 173 157 124
0.411468 0.457577 1.53733 168 153 122
0.429908 0.455765 1.53066 177 156 137
0.448389 0.454234 1.52497 180 159 140
0.466676 0.452698 1.51927 181 161 136
0.4868 0.453167 1.52056 175 156 126
0.504798 0.451625 1.51484 164 142 118
0.522602 0.450078 1.50911 179 158 137
0.540213 0.448526 1.50337 169 153 130
0.55763 0.446971 1.49761 171 150 121
0.574854 0.44541 1.49185 168 148 121
0.594494 0.445868 1.49311 155 137 101
0.611815 0.44459 1.48833 166 151 118
0.639381 0.450837 1.50973 171 144 114
0.662115 0.453328 1.51806 175 151 125
0.682046 0.453793 1.51934 174 151 119
0.69579 0.45019 1.50647 169 151 113
0.712337 0.448614 1.50066 169 145 121
0.731977 0.449071 1.50192 164 140 114
-1.319 0.671708 2.20515 104 86 76
-1.29768 0.677204 2.22319 116 94 96
-1.26602 0.677941 2.22522 113 93 84
-1.23437 0.678679 2.22725 117 89 86
-1.20271 0.679416 2.22928 121 99 76
-1.18075 0.685221 2.24833 122 99 85
-1.16776 0.696109 2.28447 119 98 93
-1.13535 0.696864 2.28654 122 100 86
-1.05916 0.672764 2.20514 39 29 28
-0.860598 0.575656 1.8786 39 25 14
-0.83419 0.576271 1.88029 33 26 20
-0.807782 0.576886 1.88198 36 30 18
-0.781374 0.577502 1.88368 44 28 28
-0.760536 0.58181 1.89776 37 23 20
-0.744316 0.589538 1.92331 33 24 15
-0.717383 0.590166 1.92504 46 34 34
-0.69045 0.590793 1.92677 39 30 25
-0.667996 0.594845 1.93997 35 25 23
-0.640897 0.595476 1.94171 34 23 21
-0.618291 0.599826 1.95591 35 27 25
-0.586699 0.596739 1.94519 40 22 20
-0.563735 0.601097 1.95941 41 26 23
-0.536456 0.601732 1.96116 34 26 24
-0.517018 0.610124 1.98888 38 30 28
-0.489367 0.610768 1.99065 38 28 27
-0.465132 0.615156 2.00495 35 24 20
-0.437301 0.615804 2.00674 30 22 19
-0.40947 0.616453 2.00852 25 21 12
-0.384738 0.621145 2.02383 32 24 21
-0.356714 0.621798 2.02563 36 29 21
-0.325978 0.618398 2.01387 39 34 31
-0.393491 0.772662 2.52924 82 62 51
-0.361993 0.779864 2.55283 94 69 73
-0.326538 0.780691 2.55511 83 66 56
-0.29413 0.787914 2.57876 84 65 59
-0.258371 0.788748 2.58105 85 66 59
-0.222612 0.789581 2.58334 84 66 54
-0.186853 0.790414 2.58564 86 66 59
-0.151094 0.791247 2.58793 90 63 54
-0.115336 0.792081 2.59022 84 56 52
-0.0783537 0.786473 2.57102 90 65 43
-0.0428988 0.7873 2.57329 82 62 53
-0.00805904 0.79458 2.5971 89 70 56
0.0276998 0.795413 2.59939 91 67 57
0.0634586 0.796247 2.60169 70 47 41
0.0992174 0.79708 2.60398 72 52 51
0.133776 0.784948 2.56305 51 37 36
0.15853 0.711134 2.31655 26 20 22
0.182939 0.672891 2.18869 31 26 20
0.208649 0.655848 2.1315 32 31 29
0.245078 0.590833 1.91419 55 47 45
0.267244 0.581353 1.88227 50 41 34
0.285867 0.565615 1.82953 44 32 36
0.302007 0.547761 1.76977 56 43 37
0.305064 0.50755 1.63563 158 140 120
0.321539 0.498231 1.60433 145 126 112
0.338716 0.491574 1.5819 117 101 88
0.354071 0.483111 1.55347 97 88 83
0.370252 0.477019 1.53293 123 101 87
0.38737 0.473008 1.51932 148 132 106
0.404308 0.469286 1.50668 172 152 127
0.422597 0.467654 1.50099 170 155 126
0.438858 0.463916 1.4883 177 156 135
0.456664 0.462273 1.48258 174 157 131
0.474566 0.460926 1.47784 163 147 124
0.494124 0.461382 1.4791 174 147 128
0.51146 0.459727 1.47335 171 148 117
0.528603 0.458069 1.46758 156 122 110
0.552797 0.462749 1.48286 150 118 97
0.567331 0.458971 1.47006 163 112 93
0.58446 0.457606 1.46528 124 44 33
0.603741 0.458055 1.46652 131 35 39
0.623023 0.458504 1.46775 127 63 61
0.639406 0.456828 1.46194 144 108 86
0.656024 0.455451 1.45712 147 129 109
0.677775 0.457722 1.4644 156 140 115
0.702881 0.462129 1.47875 167 140 119
0.72553 0.464715 1.48707 164 141 123
-1.3299 0.708071 2.2184 133 112 93
-1.29824 0.708809 2.22043 121 109 93
-1.27703 0.714844 2.23942 138 119 113
-1.23492 0.710284 2.22449 151 127 117
-1.21322 0.716331 2.24351 144 128 115
-1.19102 0.722389 2.26256 146 134 122
-1.15887 0.723138 2.26462 152 134 124
-1.12672 0.723887 2.26668 158 137 118
-0.861065 0.602021 1.8763 45 36 21
-0.834657 0.602636 1.87799 27 20 14
-0.819658 0.610681 1.90344 49 35 34
-0.787594 0.607735 1.89374 31 25 27
-0.766151 0.611928 1.90687 36 26 25
-0.744792 0.616428 1.92097 37 30 22
-0.722672 0.620637 1.93414 28 23 19
-0.695574 0.621268 1.93588 34 25 30
-0.67333 0.625788 1.95003 35 26 29
-0.646052 0.626424 1.95178 32 27 23
-0.618774 0.62706 1.95353 29 25 24
-0.591495 0.627695 1.95528 37 20 26
-0.564217 0.628331 1.95703 37 30 24
-0.540896 0.632876 1.97126 43 33 24
-0.521285 0.641644 1.99896 45 28 34
-0.489856 0.638375 1.98824 40 33 25
-0.469306 0.647165 2.016 38 27 31
-0.441282 0.647818 2.0178 42 32 30
-0.413258 0.648471 2.0196 39 28 22
-0.388335 0.653361 2.0349 38 28 29
-0.357209 0.649777 2.02319 41 27 26
-0.3319 0.654676 2.03852 38 27 33
-0.390329 0.80138 2.50586 59 43 30
-0.358961 0.808575 2.52844 58 39 32
-0.320607 0.803004 2.51033 65 45 38
-0.285746 0.803816 2.51256 70 51 47
-0.250885 0.804629 2.5148 73 51 38
-0.216024 0.805441 2.51703 71 49 38
-0.181163 0.806253 2.51927 79 60 43
-0.146302 0.807066 2.5215 78 58 49
-0.111441 0.807878 2.52374 84 58 41
-0.0754073 0.802253 2.50548 87 60 51
-0.0426011 0.815946 2.54872 89 66 60
-0.00685764 0.810315 2.53044 82 66 51
0.0280034 0.811127 2.53268 82 58 46
0.0628645 0.811939 2.53491 77 57 46
0.0977255 0.812752 2.53715 71 54 46
0.132587 0.813564 2.53939 73 50 42
0.165732 0.801408 2.50038 31 21 22
0.185035 0.717513 2.23326 26 24 12
0.208137 0.684806 2.12897 30 22 19
0.232451 0.667826 2.07471 39 31 29
0.264376 0.599924 1.85835 51 45 33
0.28407 0.586839 1.81652 49 38 44
0.304336 0.577768 1.78746 44 32 32
0.321022 0.563074 1.74054 59 51 40
0.32116 0.519673 1.60246 114 105 90
0.334226 0.50551 1.55727 90 77 71
0.350813 0.499124 1.53678 99 91 80
0.366792 0.492724 1.51626 109 92 84
0.383927 0.488814 1.50365 131 119 103
0.399035 0.482702 1.48405 172 155 139
0.415548 0.479085 1.47238 166 149 123
0.433273 0.477343 1.46666 175 155 130
0.44915 0.473711 1.45495 177 153 125
0.466405 0.471958 1.4492 177 152 132
0.48559 0.472405 1.45043 175 154 127
0.49875 0.466863 1.43266 180 154 127
0.517672 0.467304 1.43388 180 123 132
0.539007 0.469956 1.4421 177 127 130
0.555516 0.468186 1.4363 156 93 84
0.572205 0.466728 1.4315 158 78 89
0.591044 0.467167 1.4327 149 62 55
0.609883 0.467606 1.43391 142 51 48
0.62624 0.46614 1.42908 114 52 39
0.647562 0.468484 1.43633 169 149 122
0.666401 0.468923 1.43753 147 127 102
0.679778 0.46554 1.42664 124 102 81
0.70408 0.469801 1.43995 97 80 73
-1.33045 0.739677 2.21564 135 124 118
-1.2988 0.740414 2.21767 141 125 110
-1.26714 0.741152 2.2197 141 121 120
-1.24569 0.747441 2.23868 144 127 119
-1.20383 0.742627 2.22376 144 121 113
-1.19159 0.754491 2.25976 142 120 122
-1.15944 0.75524 2.26182 137 117 110
-1.1365 0.761563 2.2809 140 120 109
-0.867827 0.632421 1.88631 46 37 32
-0.841239 0.63304 1.88801 19 14 8
-0.820131 0.637392 1.9011 34 28 30
-0.793378 0.638015 1.90282 32 26 10
-0.772201 0.642689 1.91689 44 35 26
-0.75025 0.64706 1.93004 39 28 24
-0.728369 0.651751 1.94416 41 29 31
-0.696053 0.648323 1.93352 35 27 25
-0.673812 0.653022 1.94766 39 29 27
-0.646534 0.653658 1.94941 32 25 15
-0.619256 0.654294 1.95116 37 19 17
-0.596297 0.65901 1.96534 30 28 31
-0.56884 0.65965 1.9671 38 18 20
-0.541382 0.660289 1.96887 43 33 24
-0.521777 0.66943 1.99653 34 28 16
-0.497826 0.674491 2.01176 34 25 16
-0.469801 0.675144 2.01356 36 22 21
-0.445269 0.680218 2.02883 33 22 20
-0.417052 0.680875 2.03064 34 26 23
-0.388834 0.681533 2.03245 31 28 21
-0.360617 0.68219 2.03426 35 24 18
-0.332399 0.682848 2.03607 36 25 29
-0.376154 0.810156 2.42356 53 36 29
-0.345757 0.817296 2.44507 58 42 29
-0.311752 0.818089 2.44725 62 44 34
-0.277748 0.818881 2.44943 71 52 37
-0.243743 0.819673 2.45161 72 54 40
-0.209738 0.820466 2.45379 67 50 30
-0.175733 0.821258 2.45597 75 56 42
-0.141729 0.82205 2.45815 78 54 50
-0.107724 0.822843 2.46033 79 62 46
-0.0737193 0.823635 2.46251 95 73 59
-0.0405599 0.83084 2.4842 81 59 48
-0.00627891 0.831639 2.4864 86 69 51
0.0282949 0.826012 2.46905 86 62 52
0.0622996 0.826804 2.47123 77 52 47
0.0963043 0.827597 2.47341 72 48 46
0.130309 0.828389 2.47559 72 54 40
0.163502 0.82273 2.45816 60 42 32
0.208647 0.718612 2.14119 33 28 24
0.231952 0.695998 2.07225 42 34 32
0.253652 0.674633 2.00712 33 36 29
0.263932 0.625021 1.85616 56 42 41
0.283636 0.611329 1.81439 53 42 38
0.30391 0.601831 1.78536 55 43 47
0.320608 0.586461 1.7385 54 50 41
0.334798 0.56878 1.68463 54 44 45
0.333857 0.526304 1.55545 119 108 88
0.349102 0.517332 1.52806 118 105 88
0.363546 0.508342 1.50062 158 146 120
0.38049 0.504234 1.48801 161 144 124
0.397049 0.500117 1.47538 159 136 118
0.411733 0.494027 1.45676 173 155 133
0.427697 0.490218 1.44507 179 156 138
0.441649 0.484432 1.42737 175 153 129
0.4571 0.480933 1.41663 175 157 135
0.47222 0.477425 1.40586 176 160 134
0.48891 0.475885 1.40106 168 139 123
0.50345 0.472364 1.39025 171 120 119
0.525926 0.476747 1.40343 175 112 123
0.544434 0.477178 1.40462 171 104 121
0.560709 0.475628 1.39979 178 96 118
0.579134 0.476057 1.40097 168 82 107
0.595161 0.474501 1.39613 168 101 95
0.611022 0.472941 1.39128 155 139 116
0.629281 0.473366 1.39245 161 139 118
0.650187 0.475783 1.39966 158 138 114
0.671259 0.478204 1.40688 168 150 110
0.695309 0.482624 1.42016 154 134 109
-1.34197 0.777064 2.22977 119 109 100
-1.29936 0.772019 2.21491 125 99 98
-1.2677 0.772757 2.21694 133 114 99
-1.24626 0.779294 2.2359 138 122 106
-1.21435 0.780038 2.23795 136 107 112
-1.20188 0.792403 2.27392 138 107 102
-1.16947 0.793158 2.276 139 113 100
-1.13707 0.793913 2.27808 133 108 103
-1.11414 0.800821 2.29811 93 71 60
-0.868297 0.658965 1.88399 32 32 30
-0.847358 0.663478 1.89706 34 25 26
-0.826543 0.668324 1.91109 44 34 32
-0.79961 0.668951 1.91282 43 31 31
-0.777828 0.673484 1.92594 43 28 35
-0.75613 0.67835 1.94003 43 33 31
-0.728851 0.678985 1.94178 34 24 23
-0.701573 0.679621 1.94353 34 24 23
-0.684393 0.689078 1.97101 37 25 25
-0.651699 0.685143 1.95943 32 22 20
-0.62909 0.690366 1.97456 35 25 26
-0.596783 0.686423 1.96295 40 24 24
-0.573787 0.691655 1.97811 37 26 20
-0.546136 0.692299 1.97988 33 24 25
-0.526345 0.701816 2.00753 35 25 24
-0.498321 0.702469 2.00932 40 34 34
-0.473986 0.707732 2.02456 38 26 26
-0.445768 0.70839 2.02637 31 22 23
-0.417551 0.709047 2.02818 28 18 16
-0.389333 0.709705 2.02999 32 28 19
-0.364031 0.71499 2.04529 38 25 32
-0.33562 0.715652 2.04711 37 27 26
-0.366274 0.824619 2.36462 48 34 23
-0.339686 0.837985 2.40346 58 37 32
-0.306233 0.838764 2.4056 70 49 44
-0.272781 0.839544 2.40775 70 50 43
-0.236947 0.834006 2.39148 75 51 39
-0.205877 0.841103 2.41204 71 50 45
-0.170567 0.835552 2.39574 74 55 48
-0.138972 0.842661 2.41632 83 56 45
-0.104187 0.837099 2.39999 76 49 38
-0.0699274 0.831524 2.38363 77 57 46
-0.0386154 0.845 2.42276 84 55 59
-0.00461789 0.839419 2.40638 92 76 53
0.0282891 0.846559 2.42705 85 65 56
0.0617414 0.847338 2.42919 89 67 56
0.0949516 0.841739 2.41276 87 70 54
0.128141 0.842512 2.41489 83 61 48
0.161331 0.843286 2.41702 74 61 55
0.191433 0.824868 2.36326 36 30 30
0.232599 0.728892 2.08354 38 29 30
0.25317 0.701867 2.00475 34 24 32
0.27629 0.68966 1.9691 37 33 32
0.28197 0.632436 1.8024 57 39 37
0.302114 0.622507 1.77341 47 38 39
0.320194 0.609847 1.73646 51 41 42
0.334397 0.591395 1.68266 52 36 36
0.349374 0.577321 1.64161 103 90 84
0.347203 0.535008 1.51837 169 149 125
0.361749 0.525955 1.49195 166 146 119
0.38014 0.524036 1.48629 163 146 116
0.395299 0.51768 1.46772 172 151 130
0.406688 0.506877 1.43621 165 150 121
0.420824 0.500834 1.41855 184 164 139
0.438012 0.499222 1.41379 175 157 133
0.451567 0.4935 1.39707 174 149 127
0.466441 0.489821 1.3863 176 158 134
0.482884 0.488192 1.38149 175 160 129
0.499161 0.486559 1.37668 173 158 125
0.515272 0.484922 1.37185 175 151 125
0.531575 0.483624 1.36801 168 144 118
0.5496 0.484044 1.36916 171 132 125
0.567624 0.484464 1.37032 178 118 128
0.585648 0.484884 1.37147 160 135 113
0.603673 0.485304 1.37263 146 126 102
0.621697 0.485724 1.37379 171 145 128
0.639722 0.486144 1.37494 168 148 121
0.652744 0.482758 1.36503 159 142 112
0.670617 0.483175 1.36618 152 132 107
-1.3535 0.814948 2.24385 116 93 85
-1.29992 0.803625 2.21216 106 86 77
-1.27873 0.810404 2.23108 115 92 86
-1.2366 0.8051 2.21622 116 90 75
-1.20495 0.805838 2.21825 101 85 70
-1.19273 0.818694 2.25416 115 93 69
-1.1511 0.813378 2.23926 117 94 78
-1.12842 0.820192 2.25828 112 85 78
-1.09627 0.820942 2.26034 102 90 74
-0.880885 0.693958 1.9053 28 22 24
-0.853953 0.694585 1.90702 46 32 32
-0.827019 0.695213 1.90875 33 24 29
-0.805406 0.699907 1.92184 37 26 22
-0.778307 0.700539 1.92358 33 30 21
-0.756612 0.705584 1.93766 37 27 28
-0.729334 0.706219 1.93941 41 27 26
-0.712533 0.71604 1.96683 41 30 34
-0.684881 0.716684 1.9686 31 24 18
-0.65723 0.717328 1.97038 28 25 20
-0.629579 0.717972 1.97215 32 25 19
-0.606254 0.723056 1.98633 38 27 23
-0.578423 0.723704 1.98812 35 25 24
-0.546625 0.719905 1.97747 17 8 9
-0.526841 0.729795 2.00508 42 33 26
-0.498816 0.730448 2.00688 34 28 30
-0.474484 0.735904 2.0221 38 27 25
-0.446267 0.736561 2.02391 34 24 23
-0.421355 0.742031 2.03917 41 30 26
-0.392944 0.742693 2.04099 30 25 21
-0.364533 0.743355 2.04281 35 23 27
-0.336122 0.744017 2.04464 35 28 18
-0.359983 0.844383 2.32512 53 39 28
-0.330755 0.851699 2.34553 61 40 37
-0.29809 0.852461 2.34763 70 46 42
-0.265425 0.853222 2.34972 72 52 41
-0.23276 0.853983 2.35181 75 54 37
-0.19797 0.848158 2.3355 79 61 51
-0.16743 0.855505 2.356 87 67 60
-0.134765 0.856266 2.3581 85 57 43
-0.100763 0.850423 2.34174 85 58 47
-0.0694348 0.857788 2.36229 97 70 61
-0.0367698 0.858549 2.36438 94 66 55
-0.00465473 0.865933 2.38498 93 71 57
0.0285601 0.860072 2.36857 94 66 52
0.0612001 0.867467 2.3892 84 66 52
0.0941275 0.868234 2.39131 86 66 55
0.126555 0.862355 2.37485 82 59 53
0.15922 0.863116 2.37695 46 34 36
0.19086 0.857218 2.36044 36 27 28
0.232096 0.757257 2.08107 25 23 26
0.253927 0.73367 2.01514 24 18 22
0.274507 0.712149 1.95498 43 38 34
0.281539 0.656788 1.80028 60 48 50
0.300322 0.642908 1.76147 54 44 43
0.31978 0.633234 1.73442 55 47 44
0.333997 0.614009 1.68069 53 41 41
0.348984 0.599343 1.63969 50 44 46
0.357022 0.574037 1.56897 90 74 74
0.361396 0.545853 1.49021 164 144 117
0.376714 0.538877 1.4707 161 141 116
0.390284 0.530113 1.4462 174 152 128
0.403135 0.521333 1.42165 157 140 120
0.418924 0.517511 1.41095 178 158 125
0.432732 0.511546 1.39427 182 161 134
0.446043 0.505571 1.37756 181 160 139
0.460671 0.501721 1.36679 181 158 142
0.475285 0.49822 1.35699 177 158 126
0.491576 0.496854 1.35316 179 160 128
0.509448 0.49727 1.35431 183 162 133
0.523027 0.493396 1.34347 182 162 129
0.538876 0.492019 1.3396 166 148 124
0.556514 0.49243 1.34073 167 147 114
0.576148 0.494634 1.34687 164 142 119
0.591789 0.493252 1.343 170 147 116
0.609427 0.493663 1.34413 161 140 111
0.627065 0.494074 1.34526 130 114 91
0.646975 0.496284 1.35141 152 133 101
0.66234 0.494896 1.34752 171 144 123
-1.31142 0.822633 2.17556 100 73 44
-1.27011 0.817424 2.16164 107 81 64
-1.23916 0.818145 2.16362 109 82 71
-1.2082 0.818867 2.16561 104 87 67
-1.17725 0.819588 2.16759 112 87 67
-1.15548 0.826266 2.18556 102 88 79
-1.1243 0.826993 2.18756 111 82 74
-1.08439 0.821751 2.17355 110 85 78
-1.06192 0.828446 2.19156 103 83 72
-0.881362 0.720847 1.90295 34 29 23
-0.854429 0.721475 1.90468 42 32 30
-0.832984 0.72633 1.91775 34 25 20
-0.805885 0.726962 1.91948 40 29 27
-0.778786 0.727593 1.92122 41 27 26
-0.762501 0.737411 1.94761 34 24 23
-0.735043 0.738051 1.94937 26 21 17
-0.713021 0.743646 1.96442 38 33 27
-0.68537 0.74429 1.9662 30 23 17
-0.657719 0.744935 1.96797 30 29 25
-0.634577 0.750193 1.98212 35 26 29
-0.606746 0.750841 1.98391 31 26 20
-0.578915 0.75149 1.98569 30 26 27
-0.551084 0.752138 1.98748 35 26 21
-0.531418 0.762761 2.01603 37 29 26
-0.503201 0.763418 2.01784 33 24 17
-0.478679 0.769072 2.03305 45 38 32
-0.450268 0.769734 2.03487 35 24 22
-0.425166 0.775401 2.05013 27 15 15
-0.399678 0.781077 2.06541 30 22 11
-0.37088 0.781748 2.06725 28 24 21
-0.342082 0.782419 2.0691 30 21 24
-0.308214 0.773044 2.04398 58 39 33
-0.319119 0.858096 2.27232 67 41 44
-0.290225 0.865304 2.29172 65 50 43
-0.25832 0.866047 2.29376 77 58 43
-0.224149 0.860309 2.27841 81 63 51
-0.192492 0.861047 2.28044 70 46 44
-0.162604 0.868277 2.2999 72 52 45
-0.129179 0.862522 2.2845 88 64 62
-0.0975219 0.86326 2.28653 92 64 61
-0.0668878 0.870508 2.30604 94 64 54
-0.0349825 0.871251 2.30808 101 82 65
-0.00360246 0.878516 2.32764 104 82 68
0.0288282 0.872738 2.31217 100 73 66
0.0607335 0.873481 2.31422 91 62 56
0.0926388 0.874225 2.31627 88 69 52
0.124544 0.874968 2.31831 87 62 58
0.156449 0.875712 2.32036 80 62 50
0.188355 0.876455 2.3224 71 55 42
0.219045 0.870636 2.30683 49 36 30
0.230456 0.780513 2.06488 22 16 16
0.253442 0.761083 2.01275 42 33 36
0.274037 0.738693 1.95266 34 25 28
0.29461 0.721386 1.90623 42 32 33
0.298535 0.663033 1.74956 55 46 39
0.316509 0.649657 1.71368 48 44 35
0.333596 0.636624 1.67871 45 35 34
0.348594 0.621364 1.63777 56 47 42
0.361061 0.603504 1.58984 46 39 33
0.37297 0.587084 1.54577 94 80 71
0.376367 0.558485 1.46899 156 138 114
0.389943 0.549363 1.44452 164 146 124
0.401318 0.538012 1.41406 163 146 118
0.415462 0.531807 1.39742 165 149 126
0.427461 0.523375 1.3748 181 160 141
0.442258 0.519364 1.36405 173 158 125
0.455515 0.513864 1.34931 175 161 132
0.469594 0.509836 1.33852 168 152 116
0.484002 0.506542 1.3297 178 150 128
0.50157 0.506951 1.33082 176 152 124
0.515206 0.503276 1.32098 177 157 124
0.532623 0.503682 1.32209 178 162 128
0.545802 0.499996 1.31222 176 155 126
0.561072 0.498537 1.30832 169 143 120
0.580332 0.5008 1.31443 174 155 123
0.600156 0.50344 1.32155 167 148 108
0.614862 0.501605 1.31664 151 127 99
0.632126 0.502007 1.31775 93 74 59
0.649391 0.502409 1.31886 130 107 89
-1.30161 0.847605 2.15696 108 76 63
-1.26053 0.842157 2.14304 102 84 62
-1.2205 0.83706 2.13004 108 80 59
-1.19 0.837771 2.13199 117 94 78
-1.15064 0.832659 2.11894 121 94 73
-1.13766 0.84502 2.15092 119 89 87
-1.09851 0.839903 2.13786 114 87 66
-1.06802 0.840613 2.13981 112 85 64
-1.03752 0.841324 2.14177 99 76 58
-0.88766 0.752122 1.91191 36 27 20
-0.860562 0.752754 1.91365 32 25 19
-0.833463 0.753385 1.91539 31 22 15
-0.812133 0.758781 1.92941 29 22 16
-0.790444 0.764184 1.94345 32 29 24
-0.774223 0.774736 1.97078 23 16 23
-0.746392 0.775385 1.97256 40 30 20
-0.71351 0.771252 1.96201 40 31 26
-0.69073 0.776682 1.97613 34 24 23
-0.6629 0.77733 1.97791 36 27 30
-0.635069 0.777978 1.9797 34 26 23
-0.611904 0.783793 1.99481 34 25 16
-0.58388 0.784446 1.99661 36 21 26
-0.555856 0.785099 1.99841 34 22 22
-0.536003 0.796112 2.02693 28 22 24
-0.511485 0.801959 2.04214 31 23 21
-0.479181 0.797436 2.03058 24 23 18
-0.454276 0.803292 2.0458 28 20 18
-0.428985 0.809157 2.06105 28 21 15
-0.400187 0.809828 2.0629 35 26 21
-0.371389 0.810499 2.06475 36 26 27
-0.342591 0.81117 2.06659 20 16 13
-0.316514 0.817429 2.08287 61 46 39
-0.313982 0.877023 2.23683 71 52 48
-0.282795 0.87775 2.23883 75 55 54
-0.251608 0.878476 2.24083 77 52 45
-0.220421 0.879203 2.24283 78 61 51
-0.187324 0.873569 2.2284 77 58 44
-0.154698 0.867923 2.21395 52 37 30
-0.118561 0.84465 2.15396 50 42 29
-0.0898613 0.851347 2.17138 22 15 9
-0.0625453 0.87007 2.21986 83 58 53
-0.034033 0.889952 2.27133 94 72 58
-0.00211084 0.88429 2.25683 98 75 57
0.0290763 0.885017 2.25883 96 71 66
0.0602634 0.885743 2.26083 94 72 59
0.0914505 0.88647 2.26283 97 74 58
0.122638 0.887197 2.26483 94 69 62
0.153825 0.887923 2.26683 92 72 61
0.185012 0.88865 2.26883 78 62 47
0.216199 0.889377 2.27083 73 55 53
0.247386 0.890103 2.27283 37 23 20
0.252956 0.788496 2.01035 29 23 23
0.272154 0.760307 1.9376 39 34 31
0.292804 0.743078 1.89318 32 26 26
0.295527 0.679462 1.72884 50 40 39
0.314748 0.669359 1.70282 50 40 41
0.331721 0.655813 1.66789 47 40 34
0.348204 0.643386 1.63585 52 42 43
0.362216 0.627887 1.59586 54 41 32
0.374041 0.610453 1.55087 47 42 39
0.382157 0.588787 1.49493 93 76 68
0.387971 0.565938 1.43592 157 137 126
0.400985 0.556821 1.41242 162 140 126
0.41357 0.548071 1.38986 166 146 121
0.423845 0.537006 1.36132 178 155 141
0.437326 0.531291 1.34661 167 158 127
0.450064 0.525182 1.33088 184 159 129
0.462648 0.519447 1.31611 166 119 109
0.478416 0.51793 1.31225 165 95 83
0.495764 0.518335 1.31336 194 161 128
0.513111 0.518739 1.31448 175 153 139
0.526377 0.514903 1.30462 175 156 114
0.541648 0.513375 1.30073 180 164 131
0.556781 0.511843 1.29683 184 157 127
0.571776 0.510309 1.29293 172 146 121
0.590896 0.512638 1.29902 165 145 108
0.605753 0.5111 1.29511 169 143 116
0.622741 0.511496 1.2962 119 102 84
0.642069 0.513831 1.3023 99 80 73
-1.26252 0.854042 2.09361 108 81 70
-1.23247 0.854742 2.09554 112 95 67
-1.20241 0.855442 2.09746 112 85 64
-1.16326 0.850105 2.08442 112 91 70
-1.12511 0.845135 2.07228 122 101 70
-1.11225 0.857543 2.10324 131 95 95
-1.08219 0.858244 2.10517 119 90 82
-1.05214 0.858944 2.1071 101 80 63
-1.02208 0.859644 2.10902 103 81 57
-0.999796 0.866413 2.12601 32 29 22
-0.867172 0.784743 1.92353 31 31 23
-0.845846 0.790318 1.93754 41 36 32
-0.812615 0.786015 1.92703 31 19 23
-0.785337 0.78665 1.92878 33 26 18
-0.774715 0.802522 1.96835 35 28 22
-0.746884 0.80317 1.97014 34 24 22
-0.719053 0.803819 1.97192 28 24 13
-0.696472 0.809813 1.98698 31 23 21
-0.668448 0.810466 1.98878 34 26 24
-0.640424 0.811119 1.99057 27 24 17
-0.617069 0.817132 2.00568 29 25 22
-0.588851 0.817789 2.00749 37 33 32
-0.556351 0.813078 1.99596 38 33 30
-0.536505 0.824477 2.02446 26 18 16
-0.511991 0.830517 2.03964 33 24 19
-0.487089 0.836565 2.05485 37 34 27
-0.451273 0.826463 2.02993 34 24 25
-0.429494 0.837907 2.05854 42 33 26
-0.400696 0.838578 2.06039 36 27 30
-0.371898 0.839249 2.06224 41 35 39
-0.346032 0.845711 2.07848 37 30 22
-0.327923 0.869569 2.13798 61 43 33
-0.306144 0.888825 2.18604 65 48 30
-0.275647 0.889536 2.188 74 55 38
-0.247393 0.896444 2.20536 87 73 47
-0.210611 0.878552 2.16105 94 68 43
-0.182357 0.88546 2.17842 103 72 51
-0.147441 0.867915 2.13496 48 37 31
-0.115267 0.856947 2.10786 50 40 38
-0.0881882 0.869296 2.13876 28 22 8
-0.0594213 0.875825 2.15519 59 41 27
-0.0309792 0.888987 2.18813 91 69 56
-0.00117849 0.895931 2.20559 102 72 64
0.029318 0.896641 2.20755 99 73 60
0.0597817 0.903601 2.22506 93 63 55
0.0901229 0.891809 2.19589 90 64 63
0.120808 0.898773 2.21342 94 73 54
0.151304 0.899484 2.21537 95 70 63
0.182652 0.906464 2.23294 97 75 61
0.211225 0.894631 2.20366 76 58 56
0.242794 0.901616 2.22124 66 47 43
0.270262 0.889757 2.19189 25 13 17
0.273097 0.791783 1.94803 39 29 37
0.290882 0.764074 1.87917 35 28 22
0.310488 0.747345 1.83765 37 29 26
0.311493 0.684872 1.68215 54 49 46
0.330013 0.675148 1.65806 52 42 40
0.346217 0.661855 1.62507 54 43 41
0.361836 0.649329 1.59399 55 46 37
0.376955 0.637573 1.56482 55 42 34
0.3864 0.617091 1.5139 48 37 35
0.395313 0.59816 1.46683 104 88 73
0.399173 0.573251 1.40485 161 141 117
0.410118 0.561788 1.37638 164 143 124
0.422154 0.553085 1.35479 169 153 128
0.432114 0.542381 1.32821 179 156 122
0.446432 0.538418 1.31843 121 34 43
0.458868 0.532458 1.30367 134 23 32
0.472839 0.528877 1.29485 153 41 37
0.488249 0.527283 1.29097 126 41 48
0.503521 0.525686 1.28709 143 128 97
0.516801 0.52209 1.27822 172 148 124
0.531728 0.520485 1.27432 166 147 114
0.546517 0.518876 1.2704 170 147 116
0.563229 0.519266 1.27148 171 153 117
0.575681 0.51565 1.26255 175 154 123
0.594454 0.51804 1.26862 172 151 130
0.608829 0.516422 1.26468 156 143 111
0.627741 0.518816 1.27075 121 109 95
-1.25329 0.877805 2.07608 100 79 74
-1.21451 0.872642 2.064 110 88 77
-1.18489 0.873333 2.0659 123 96 79
-1.14673 0.868156 2.05378 124 93 72
-1.10899 0.862969 2.04163 113 88 94
-1.08789 0.869527 2.05755 108 91 65
-1.05847 0.870212 2.05944 111 91 67
-1.02906 0.870898 2.06132 118 90 78
-0.999637 0.871583 2.06321 113 84 78
-0.948361 0.85458 2.0228 38 28 26
-0.86152 0.806863 1.90893 31 27 18
-0.840376 0.812613 1.92291 34 18 28
-0.825093 0.823888 1.95011 28 35 17
-0.797442 0.824532 1.95188 39 30 33
-0.775207 0.830307 1.96593 30 24 24
-0.753016 0.836486 1.98095 32 23 16
-0.719545 0.831604 1.9695 31 26 20
-0.696967 0.837792 1.98454 40 28 28
-0.668943 0.838445 1.98634 34 25 8
-0.640919 0.839098 1.98813 32 27 23
-0.617568 0.845303 2.00323 26 23 14
-0.59383 0.851518 2.01834 30 26 17
-0.569705 0.857742 2.03348 33 24 29
-0.545193 0.863974 2.04865 28 23 20
-0.516396 0.864645 2.0505 26 26 18
-0.491569 0.87129 2.06665 30 23 15
-0.462564 0.871965 2.06851 28 21 15
-0.437116 0.878624 2.08471 25 18 12
-0.407903 0.879305 2.08659 34 27 19
-0.378691 0.879986 2.08846 25 16 19
-0.352414 0.886664 2.10471 48 38 28
-0.325723 0.893352 2.12099 62 44 34
-0.298617 0.900049 2.13729 93 68 61
-0.268784 0.900744 2.1392 105 79 64
-0.23895 0.901439 2.14112 108 76 65
-0.209116 0.902135 2.14303 60 39 18
-0.175899 0.890777 2.11603 38 35 16
-0.14648 0.891462 2.11791 33 23 14
-0.115783 0.886112 2.10532 38 29 20
-0.0865713 0.886792 2.10719 41 34 8
-0.0590855 0.899565 2.13808 121 89 51
-0.0294592 0.900255 2.13998 125 89 57
0.000615953 0.89489 2.12734 80 70 35
0.0297936 0.901635 2.14378 76 55 38
0.0593488 0.91486 2.17578 102 76 63
0.0892191 0.909086 2.16216 90 64 51
0.119458 0.916261 2.17963 92 79 60
0.148886 0.910476 2.16598 94 77 51
0.179567 0.917661 2.18349 88 69 52
0.208553 0.911867 2.16981 85 64 45
0.239676 0.919062 2.18734 67 47 40
0.26822 0.913257 2.17363 53 40 31
0.293236 0.798992 1.89946 37 32 28
0.310047 0.77229 1.83547 35 37 32
0.313933 0.715361 1.6988 42 34 31
0.329616 0.697528 1.65611 60 44 47
0.344411 0.680484 1.6153 56 43 52
0.359928 0.667501 1.58425 57 44 53
0.376583 0.658588 1.56299 54 40 39
0.387791 0.640651 1.52001 49 44 38
0.398221 0.623506 1.47892 53 43 42
0.404999 0.602231 1.42789 115 96 81
0.406672 0.575175 1.36293 152 136 110
0.418822 0.566562 1.34235 160 140 113
0.428637 0.555468 1.31579 139 97 83
0.441298 0.549292 1.30106 134 42 31
0.453832 0.543518 1.2873 137 26 33
0.467598 0.539795 1.27847 143 33 34
0.482802 0.538128 1.27459 125 37 35
0.496085 0.534393 1.26573 118 97 80
0.512797 0.534783 1.2668 179 158 129
0.525665 0.531038 1.25792 178 159 142
0.540646 0.52977 1.255 176 157 125
0.557165 0.530155 1.25605 178 153 123
0.569425 0.526397 1.24713 162 141 110
0.583608 0.524705 1.24318 176 149 122
0.599919 0.525085 1.24423 174 147 128
0.618568 0.527542 1.25028 176 154 115
-1.23551 0.895471 2.04556 95 68 61
-1.1882 0.884027 2.01949 102 77 55
-1.15919 0.884703 2.02135 110 83 66
-1.12166 0.879305 2.00921 118 87 69
-1.09286 0.879976 2.01106 110 84 71
-1.07218 0.886731 2.02693 115 89 54
-1.03526 0.881318 2.01475 107 78 80
-1.00646 0.881989 2.0166 111 91 66
-0.985164 0.888758 2.03251 118 88 77
-0.94887 0.883331 2.02029 55 46 41
-0.874274 0.844505 1.931 34 28 16
-0.846816 0.845145 1.93276 32 20 20
-0.825582 0.851494 1.9477 35 24 32
-0.80353 0.857445 1.96172 30 25 21
-0.781535 0.863812 1.97671 44 36 33
-0.753511 0.864465 1.9785 27 24 17
-0.725487 0.865118 1.9803 32 23 24
-0.707975 0.877235 2.00858 32 25 17
-0.684628 0.883634 2.02366 32 22 31
-0.656023 0.8843 2.02549 30 23 17
-0.627419 0.884967 2.02732 24 24 16
-0.603298 0.891383 2.04245 26 14 34
-0.5745 0.892054 2.0443 26 19 26
-0.550091 0.898896 2.06041 37 27 25
-0.521086 0.899572 2.06227 37 27 26
-0.492081 0.900247 2.06413 52 38 29
-0.466844 0.907108 2.08029 59 44 37
-0.437632 0.907789 2.08217 81 56 60
-0.40842 0.90847 2.08404 86 67 60
-0.379208 0.90915 2.08591 90 73 63
-0.347057 0.903627 2.07343 104 81 67
-0.318052 0.904302 2.07529 109 81 59
-0.291572 0.911192 2.09153 109 80 72
-0.264677 0.918092 2.10781 109 82 63
-0.233148 0.912554 2.09528 111 81 73
-0.203936 0.913234 2.09715 101 75 52
-0.174724 0.913915 2.09902 89 69 62
-0.145512 0.914596 2.1009 71 52 45
-0.1163 0.915276 2.10277 62 46 33
-0.0870877 0.915957 2.10464 43 32 28
-0.0578757 0.916638 2.10652 51 39 25
-0.0286637 0.917318 2.10839 74 53 36
0.000548313 0.917999 2.11026 74 62 38
0.0297603 0.91868 2.11214 36 26 24
0.0589343 0.925632 2.12855 103 80 64
0.0883535 0.926318 2.13044 103 74 70
0.117773 0.927003 2.13233 103 80 74
0.147192 0.927689 2.13421 98 70 66
0.17582 0.922083 2.1215 88 69 54
0.205032 0.922763 2.12337 82 64 50
0.235449 0.929745 2.13987 82 59 53
0.264869 0.930431 2.14176 72 55 48
0.291049 0.918495 2.11434 39 30 21
0.292778 0.824861 1.8972 29 28 24
0.309605 0.797235 1.8333 40 30 20
0.328167 0.779685 1.79278 35 29 33
0.32922 0.719909 1.65416 53 43 34
0.341016 0.695092 1.59672 51 40 46
0.358024 0.685452 1.57453 53 41 45
0.374573 0.676219 1.55329 53 39 36
0.388959 0.664009 1.52511 49 42 32
0.401122 0.649238 1.49098 63 49 46
0.407861 0.626812 1.43904 60 50 41
0.411029 0.600959 1.37911 128 108 84
0.416864 0.581858 1.33487 142 128 115
0.425453 0.568676 1.30438 125 96 78
0.436473 0.560151 1.28472 118 40 36
0.450379 0.556293 1.27591 183 130 122
0.462365 0.550299 1.26213 153 107 109
0.475649 0.546427 1.25329 73 46 55
0.489014 0.542975 1.24542 45 36 37
0.503612 0.541224 1.2415 50 46 37
0.518072 0.53947 1.23758 171 151 116
0.530802 0.536003 1.22967 186 157 139
0.545342 0.534669 1.22672 177 153 129
0.563177 0.536757 1.23174 174 153 124
0.575409 0.533279 1.2238 174 157 131
0.58966 0.531938 1.22083 173 153 118
0.607536 0.534027 1.22586 159 151 112
-1.21772 0.912309 2.01511 84 65 48
-1.17976 0.906714 2.00301 77 59 47
-1.12648 0.889812 1.96574 109 88 71
-1.10623 0.896332 1.9806 112 85 78
-1.07005 0.891127 1.96936 106 84 63
-1.04941 0.897656 1.98425 118 84 72
-1.021 0.898318 1.98607 115 89 66
-0.992587 0.89898 1.98789 114 88 75
-0.964176 0.899642 1.98971 116 91 71
-0.935765 0.900304 1.99153 112 91 64
-0.900741 0.895072 1.98022 73 49 45
-0.866103 0.889831 1.96888 28 23 20
-0.838079 0.890484 1.97067 36 24 24
-0.816088 0.897044 1.98564 38 25 16
-0.793711 0.903614 2.00064 49 40 33
-0.759653 0.898359 1.98926 54 43 41
-0.736889 0.904938 2.00428 70 50 51
-0.713738 0.911525 2.01933 74 59 52
-0.685133 0.912191 2.02116 91 68 50
-0.651656 0.906924 2.00975 94 73 54
-0.627925 0.913524 2.02483 100 83 67
-0.59932 0.914191 2.02667 100 71 65
-0.570716 0.914857 2.0285 112 84 73
-0.546211 0.921476 2.04363 114 88 89
-0.517414 0.922147 2.04548 114 86 72
-0.484903 0.916857 2.034 113 84 68
-0.459818 0.923489 2.04917 115 93 72
-0.427695 0.91819 2.03767 118 86 73
-0.402223 0.924831 2.05287 118 91 74
-0.370486 0.919523 2.04134 119 95 69
-0.339136 0.914206 2.02979 120 91 73
-0.313277 0.920856 2.04501 119 93 80
-0.284673 0.921522 2.04684 116 84 69
-0.256069 0.922189 2.04868 105 83 62
-0.229437 0.928857 2.06394 118 87 69
-0.20064 0.929528 2.06579 106 81 61
-0.171842 0.930199 2.06764 121 98 80
-0.141652 0.924855 2.05601 116 90 73
-0.114247 0.931541 2.07133 111 86 66
-0.0854489 0.932212 2.07318 110 85 63
-0.0566512 0.932883 2.07502 103 79 69
-0.0285168 0.940018 2.09136 95 75 68
0.00136976 0.928187 2.06518 82 68 55
0.0297417 0.934896 2.08056 94 74 50
0.0585394 0.935567 2.08241 104 75 79
0.0873371 0.936238 2.08426 100 80 71
0.116135 0.936909 2.0861 115 85 77
0.144391 0.93152 2.07435 99 76 62
0.172996 0.932186 2.07619 92 69 55
0.202528 0.938922 2.09164 99 73 56
0.231325 0.939593 2.09349 89 65 55
0.260123 0.940264 2.09533 88 63 58
0.287413 0.934852 2.08352 72 53 46
0.314316 0.929431 2.07169 22 18 17
0.309163 0.82218 1.83112 34 26 23
0.326244 0.799682 1.78087 38 29 30
0.34235 0.778459 1.73347 41 30 26
0.342225 0.72057 1.60366 51 43 40
0.356123 0.703183 1.56483 55 40 47
0.371137 0.690573 1.53674 54 42 42
0.387068 0.68144 1.51645 57 49 47
0.400768 0.669232 1.48923 61 51 52
0.408995 0.648689 1.44326 63 48 55
0.42005 0.635123 1.41297 51 40 36
0.421198 0.607071 1.35008 134 119 96
0.425147 0.585996 1.30287 76 48 37
0.434666 0.574986 1.2783 103 21 23
0.445357 0.566595 1.25961 122 29 21
0.457467 0.56083 1.24682 179 132 124
0.470561 0.556815 1.23797 181 108 127
0.483735 0.553234 1.2301 72 38 54
0.499992 0.553613 1.23114 38 23 26
0.510873 0.547819 1.21828 168 150 128
0.526936 0.548193 1.21931 171 155 129
0.541353 0.546801 1.21636 183 161 138
0.553532 0.543197 1.20842 183 160 128
0.56722 0.541356 1.20446 168 150 110
0.581222 0.539954 1.20148 178 147 127
0.59278 0.536336 1.1935 164 138 111
-1.19197 0.92271 1.97266 84 71 55
-1.16355 0.923373 1.97449 103 86 56
-1.12698 0.917984 1.96329 115 83 68
-1.08282 0.906531 1.93903 120 98 85
-1.04777 0.901553 1.9287 107 80 63
-1.02716 0.907828 1.9426 115 84 66
-0.999329 0.908476 1.94438 114 93 62
-0.971499 0.909125 1.94616 111 95 62
-0.937165 0.90413 1.93579 125 92 77
-0.915837 0.910422 1.94973 112 87 65
-0.888006 0.91107 1.95152 101 83 69
-0.860175 0.911719 1.9533 106 83 67
-0.826559 0.906707 1.94288 119 94 72
-0.798908 0.907351 1.94465 115 86 82
-0.782526 0.919769 1.97183 111 86 55
-0.754502 0.920422 1.97362 123 90 81
-0.726478 0.921075 1.97542 120 94 79
-0.698454 0.921728 1.97722 119 98 81
-0.670429 0.922381 1.97901 114 83 78
-0.642405 0.923034 1.98081 127 94 79
-0.614381 0.923687 1.98261 120 96 84
-0.586357 0.92434 1.9844 123 97 64
-0.558333 0.924993 1.9862 118 93 73
-0.534411 0.931791 2.00128 115 87 66
-0.506194 0.932449 2.00309 122 90 77
-0.47426 0.926952 1.99159 116 87 71
-0.446236 0.927605 1.99339 116 87 69
-0.418212 0.928258 1.99518 121 92 86
-0.393324 0.935079 2.01033 109 88 67
-0.365106 0.935736 2.01213 122 96 83
-0.334139 0.930217 2.00058 116 89 72
-0.306115 0.93087 2.00237 116 90 77
-0.280453 0.937708 2.01756 107 77 66
-0.252236 0.938366 2.01937 112 84 80
-0.224018 0.939023 2.02118 117 87 77
-0.195801 0.939681 2.02299 107 77 66
-0.167583 0.940338 2.0248 108 81 72
-0.139366 0.940996 2.02661 109 78 76
-0.111148 0.941653 2.02842 109 83 66
-0.0829304 0.942311 2.03023 103 80 64
-0.0547128 0.942968 2.03204 105 76 60
-0.0271177 0.949852 2.04735 103 76 65
0.0012932 0.950514 2.04917 110 81 63
0.0299399 0.944941 2.03746 113 84 76
0.0581574 0.945598 2.03927 116 93 75
0.086526 0.9525 2.05464 109 80 66
0.114593 0.946913 2.04289 91 62 54
0.14281 0.947571 2.0447 98 69 53
0.171028 0.948228 2.04651 104 77 70
0.198321 0.942623 2.03472 98 75 61
0.227463 0.949543 2.05013 100 80 56
0.25568 0.950201 2.05194 87 59 56
0.283898 0.950858 2.05375 72 54 44
0.30872 0.938955 2.02825 45 36 27
0.324177 0.818955 1.76801 29 24 21
0.340306 0.797488 1.72164 39 39 31
0.358788 0.785436 1.69574 51 45 31
0.35575 0.724294 1.56299 59 45 45
0.370771 0.711271 1.53493 48 42 30
0.386707 0.701835 1.51467 59 49 40
0.398791 0.686069 1.48061 64 53 47
0.412091 0.674342 1.45534 55 45 44
0.421532 0.657177 1.41822 60 49 55
0.427163 0.635465 1.37117 48 40 37
0.430867 0.612817 1.32206 112 58 56
0.43587 0.594211 1.28175 115 27 25
0.445061 0.58328 1.25815 125 28 35
0.455533 0.575055 1.24044 138 37 51
0.467191 0.569085 1.22764 179 106 117
0.478463 0.563107 1.21482 178 123 116
0.493046 0.561664 1.21189 136 125 97
0.503682 0.555671 1.19902 168 150 128
0.521484 0.558314 1.205 175 155 130
0.533666 0.554586 1.19707 173 157 123
0.545599 0.550852 1.18913 174 158 124
0.559478 0.549393 1.18615 181 155 128
0.573247 0.54793 1.18316 181 155 128
0.588771 0.548292 1.18416 185 161 133
-1.18391 0.944841 1.95721 114 83 63
-1.13898 0.93302 1.93303 119 90 86
-1.10356 0.92787 1.92274 122 98 86
-1.06794 0.922266 1.9115 130 96 84
-1.04048 0.922906 1.91326 115 88 67
-1.02061 0.929803 1.92806 126 94 79
-0.985562 0.924186 1.91678 122 96 71
-0.958104 0.924826 1.91854 125 98 79
-0.92414 0.919643 1.90816 126 92 80
-0.896862 0.920278 1.9099 120 90 79
-0.869583 0.920914 1.91165 124 94 84
-0.848273 0.927385 1.92558 128 102 85
-0.815026 0.922185 1.91515 126 98 86
-0.787748 0.922821 1.9169 122 93 85
-0.771746 0.935602 1.94402 129 102 83
-0.744094 0.936246 1.94579 129 96 91
-0.716443 0.936891 1.94756 124 95 81
-0.678635 0.925363 1.9239 121 98 80
-0.656067 0.931863 1.93791 126 101 81
-0.628609 0.932503 1.93967 126 102 76
-0.601151 0.933143 1.94143 120 97 81
-0.578187 0.940112 1.95643 122 88 87
-0.546236 0.934422 1.94495 118 91 72
-0.518778 0.935062 1.94671 122 96 81
-0.495233 0.942045 1.96175 115 86 80
-0.463862 0.936342 1.95023 118 96 73
-0.433129 0.931083 1.93964 128 103 83
-0.408946 0.937621 1.95375 121 97 85
-0.384628 0.944622 1.96884 125 94 66
-0.35403 0.938901 1.95727 112 85 66
-0.326572 0.939541 1.95903 131 98 89
-0.299114 0.94018 1.96079 126 100 83
-0.274023 0.947199 1.97593 116 90 75
-0.246371 0.947843 1.9777 115 88 71
-0.21872 0.948488 1.97948 112 85 64
-0.191069 0.949132 1.98125 108 87 60
-0.163418 0.949776 1.98302 118 90 78
-0.135766 0.950421 1.98479 117 86 65
-0.108115 0.951065 1.98657 116 84 87
-0.0794511 0.945299 1.97488 103 77 64
-0.0528124 0.952354 1.99011 104 76 64
-0.0257423 0.958959 2.00441 105 76 70
0.0020885 0.959607 2.0062 122 89 80
0.0301414 0.954286 1.99543 103 81 67
0.0577927 0.954931 1.99721 106 78 64
0.085581 0.961553 2.01155 98 68 60
0.113412 0.962201 2.01333 114 86 83
0.140747 0.956864 2.00252 96 69 60
0.168398 0.957508 2.0043 94 71 57
0.196049 0.958152 2.00607 101 80 63
0.224735 0.964795 2.02047 91 68 52
0.251352 0.959441 2.00962 96 72 60
0.279003 0.960085 2.01139 82 64 50
0.306654 0.960729 2.01316 73 52 49
0.328912 0.942865 1.97594 31 17 16
0.323751 0.843017 1.76591 35 26 19
0.342979 0.829678 1.73816 35 34 29
0.355031 0.799627 1.67515 43 37 37
0.354045 0.742158 1.5543 61 51 39
0.368773 0.728254 1.52529 58 43 40
0.384604 0.718512 1.50505 59 51 38
0.398439 0.705967 1.47888 59 50 35
0.411745 0.693868 1.45364 55 45 36
0.42275 0.678959 1.42246 59 47 35
0.430115 0.659369 1.38138 53 48 18
0.436865 0.640683 1.34219 56 33 43
0.440077 0.618239 1.29505 91 25 27
0.444766 0.599966 1.2567 116 16 24
0.453601 0.589142 1.23407 125 30 34
0.466904 0.585315 1.22623 174 93 89
0.476755 0.577273 1.20946 164 99 103
0.487588 0.571091 1.19663 166 150 127
0.501869 0.569586 1.19368 173 157 123
0.510874 0.561983 1.17783 179 154 134
0.526399 0.562344 1.17883 173 158 129
0.538099 0.558481 1.17088 175 152 121
0.551745 0.55696 1.16789 182 161 134
0.56347 0.553557 1.16091 165 145 120
0.578704 0.553912 1.16189 172 152 119
-1.1673 0.960157 1.92882 113 95 75
-1.12334 0.9484 1.90558 123 93 85
-1.09588 0.94904 1.90735 118 102 79
-1.05361 0.937717 1.88496 121 95 80
-1.01984 0.932824 1.87555 122 96 69
-0.999409 0.93898 1.88844 128 98 74
-0.96597 0.934079 1.879 127 100 71
-0.945211 0.940243 1.89191 129 97 82
-0.905594 0.929332 1.87032 128 98 70
-0.885171 0.935962 1.88418 119 99 74
-0.852087 0.930579 1.87376 134 101 86
-0.831304 0.937217 1.88763 121 94 77
-0.79858 0.931825 1.87719 122 94 72
-0.771826 0.932449 1.8789 130 103 76
-0.75552 0.944663 1.90408 115 93 79
-0.723572 0.939727 1.89454 126 101 81
-0.701322 0.945926 1.90755 114 93 76
-0.674223 0.946557 1.90929 121 94 83
-0.647124 0.947189 1.91103 129 99 65
-0.61584 0.942237 1.90145 127 91 79
-0.588907 0.942865 1.90318 121 94 75
-0.565828 0.949083 1.91624 117 87 77
-0.538729 0.949714 1.91798 124 97 70
-0.51163 0.950346 1.91971 126 92 67
-0.484532 0.950977 1.92145 127 98 84
-0.46089 0.957682 1.93551 125 98 87
-0.433612 0.958317 1.93726 122 98 88
-0.406333 0.958953 1.93901 125 97 83
-0.376136 0.953503 1.9284 122 93 77
-0.346509 0.948513 1.91872 123 97 70
-0.319576 0.94914 1.92045 129 102 75
-0.29484 0.955397 1.93361 124 91 86
-0.269942 0.962131 1.94776 125 94 73
-0.242663 0.962767 1.9495 118 94 66
-0.213544 0.957291 1.93883 118 92 65
-0.186445 0.957923 1.94056 116 82 70
-0.159346 0.958554 1.9423 118 86 89
-0.132247 0.959186 1.94404 115 86 80
-0.105148 0.959817 1.94578 107 80 61
-0.0771787 0.954788 1.93599 102 74 70
-0.0509508 0.96108 1.94925 108 75 58
-0.0250207 0.973992 1.97601 100 75 68
0.00243726 0.974631 1.97777 107 80 69
0.0301204 0.969123 1.967 113 85 63
0.0574444 0.963606 1.9562 114 87 70
0.0846771 0.970394 1.97049 107 81 66
0.111955 0.97103 1.97224 92 73 59
0.138741 0.9655 1.96141 107 84 76
0.16584 0.966131 1.96315 104 75 71
0.192938 0.966763 1.96489 106 89 61
0.221069 0.973572 1.97924 89 70 56
0.247136 0.968026 1.96836 96 74 61
0.274235 0.968657 1.9701 80 61 44
0.301334 0.969288 1.97184 75 54 33
0.326817 0.964202 1.96189 63 45 41
0.34256 0.853327 1.73609 29 28 23
0.354629 0.822366 1.67317 46 38 25
0.366983 0.745495 1.51665 65 47 45
0.382723 0.735447 1.49642 60 48 52
0.396467 0.722513 1.47028 62 50 52
0.411399 0.713394 1.45194 52 45 27
0.422413 0.698029 1.42079 54 48 50
0.43306 0.683603 1.39156 60 53 45
0.439699 0.663876 1.35145 51 40 36
0.44638 0.646044 1.3152 59 35 35
0.446041 0.619054 1.26017 102 35 29
0.453312 0.605496 1.23264 125 38 31
0.464908 0.599139 1.21988 160 117 108
0.476472 0.593255 1.20807 155 139 105
0.485831 0.584952 1.1913 164 152 114
0.496608 0.579049 1.17944 142 119 113
0.507027 0.573138 1.16756 159 136 104
0.517497 0.567702 1.15665 175 165 130
0.529334 0.564191 1.14969 159 143 117
0.542704 0.562609 1.14669 170 150 123
0.557773 0.56296 1.14765 176 153 121
0.570977 0.561374 1.14464 169 151 131
-1.15128 0.975174 1.90143 120 92 81
-1.10828 0.963509 1.87913 127 94 75
-1.07418 0.958458 1.86975 124 94 66
-1.03983 0.952925 1.85942 122 93 75
-1.01308 0.953549 1.86113 127 92 90
-0.979818 0.948478 1.8517 128 100 76
-0.953231 0.949097 1.8534 123 101 88
-0.91995 0.943539 1.84301 125 92 75
-0.887531 0.938449 1.83352 129 100 70
-0.867134 0.94477 1.84639 132 104 83
-0.840726 0.945385 1.84809 127 93 84
-0.808803 0.940283 1.83856 123 98 91
-0.787909 0.946616 1.85147 127 99 88
-0.756318 0.941506 1.84193 128 96 81
-0.735093 0.947847 1.85486 119 93 76
-0.713941 0.954673 1.86875 130 99 81
-0.682277 0.949077 1.85824 126 96 86
-0.660765 0.955912 1.87215 129 100 86
-0.634177 0.956531 1.87386 116 93 75
-0.603052 0.950923 1.86332 113 80 61
-0.576644 0.951539 1.86502 122 90 75
-0.550236 0.952154 1.86671 127 101 84
-0.523827 0.952769 1.8684 117 97 64
-0.504764 0.965393 1.89372 122 97 77
-0.478011 0.966016 1.89544 124 97 78
-0.448063 0.960868 1.88579 120 91 77
-0.421475 0.961487 1.8875 116 90 75
-0.394888 0.962107 1.8892 119 91 79
-0.3683 0.962726 1.89091 114 87 78
-0.341712 0.963346 1.89261 114 92 69
-0.312562 0.957692 1.88195 132 104 83
-0.288536 0.964585 1.89602 130 95 91
-0.263983 0.971003 1.90916 124 92 81
-0.237229 0.971626 1.91088 116 90 77
-0.210476 0.97225 1.91259 125 98 87
-0.182185 0.967063 1.90284 115 82 73
-0.156969 0.973496 1.91602 120 92 71
-0.130215 0.97412 1.91774 107 78 60
-0.103462 0.974743 1.91946 113 82 77
-0.0767082 0.975367 1.92117 101 75 58
-0.0499547 0.97599 1.92289 99 72 65
-0.0232012 0.976613 1.9246 103 73 63
0.00314439 0.98356 1.93882 110 86 74
0.0300774 0.984188 1.94055 113 86 75
0.0570105 0.984816 1.94228 108 80 68
0.0838129 0.979107 1.93146 113 87 70
0.110566 0.97973 1.93318 100 77 69
0.136868 0.974497 1.9233 110 83 62
0.163456 0.975117 1.925 105 76 72
0.190043 0.975736 1.92671 104 77 70
0.21758 0.982224 1.94004 106 85 64
0.243219 0.976975 1.93012 102 76 75
0.269807 0.977595 1.93182 100 71 73
0.297841 0.984094 1.94519 75 50 43
0.322982 0.978834 1.93523 67 45 34
0.347644 0.973075 1.92428 40 30 20
0.345381 0.886795 1.75352 31 26 30
0.352644 0.840683 1.66241 37 32 28
0.368659 0.824006 1.6297 48 39 30
0.380845 0.75219 1.48782 51 39 41
0.392882 0.735419 1.45485 61 50 48
0.407626 0.72602 1.43652 57 40 48
0.422075 0.7171 1.41913 64 54 45
0.436 0.708169 1.40171 55 45 46
0.442815 0.687867 1.36166 61 46 43
0.450871 0.671491 1.3294 62 41 46
0.455162 0.650643 1.28823 54 34 27
0.460887 0.633725 1.25486 95 30 26
0.463255 0.61332 1.21452 148 128 103
0.474413 0.606759 1.20174 149 138 110
0.485552 0.600686 1.18993 160 139 118
0.494801 0.592619 1.17413 164 151 117
