ply
format ascii 1.0
element vertex 1239
property float x
property float y
property float z
property uchar red
property uchar green
property uchar blue
end_header
-0.898255 -0.300277 2.06179 174 160 151
-0.876968 -0.30184 2.07757 200 183 176
-0.842621 -0.298674 2.06566 197 182 179
-0.827091 -0.302579 2.09533 176 162 149
-0.798887 -0.301767 2.09728 202 188 179
-0.776441 -0.303297 2.11314 203 187 172
-0.753608 -0.304815 2.12902 180 166 153
-0.725018 -0.303992 2.131 199 181 179
-0.696428 -0.303169 2.13299 196 185 181
-0.667838 -0.302345 2.13498 190 170 161
-0.644038 -0.303836 2.15092 199 181 171
-0.615255 -0.303007 2.15292 196 179 172
-0.59119 -0.304645 2.16991 197 176 173
-0.5622 -0.30381 2.17192 194 179 174
-0.541818 -0.307886 2.20397 180 156 152
-0.512414 -0.30704 2.20601 190 171 165
-0.483009 -0.306193 2.20805 176 157 150
-0.457288 -0.307783 2.22515 190 167 159
-0.427676 -0.306931 2.22721 195 178 171
-0.401334 -0.308504 2.24436 178 158 147
-0.371515 -0.307645 2.24643 194 174 167
-0.341696 -0.306786 2.2485 171 148 140
-0.311878 -0.305927 2.25057 182 162 151
-0.284662 -0.30763 2.2688 179 161 151
-0.254623 -0.306765 2.27088 181 161 150
-0.226745 -0.308449 2.28916 177 159 145
-0.196485 -0.307578 2.29126 173 154 147
-0.166224 -0.306706 2.29336 184 163 158
-0.137463 -0.308365 2.31169 176 158 146
-0.10826 -0.310011 2.33006 153 131 118
-0.0775575 -0.309127 2.33219 178 159 145
-0.0468553 -0.308243 2.33432 166 147 133
-0.0168071 -0.31002 2.35377 178 156 143
0.0137104 -0.311783 2.37324 178 160 148
0.0439261 -0.324591 2.46519 135 114 93
0.0762595 -0.320862 2.44906 117 94 80
0.108397 -0.319937 2.45129 144 118 93
0.140535 -0.319011 2.45352 145 119 94
0.173472 -0.32086 2.47419 137 118 75
0.204811 -0.31716 2.45799 141 113 102
0.236949 -0.316234 2.46022 144 119 88
0.272261 -0.320968 2.50045 134 110 82
0.304909 -0.320028 2.50272 145 120 89
0.339712 -0.321979 2.52453 143 113 103
0.372623 -0.321031 2.52682 142 113 95
0.402855 -0.317207 2.50952 144 116 92
0.435504 -0.316267 2.51179 140 109 91
0.468153 -0.315327 2.51406 144 114 90
0.504267 -0.31724 2.53597 139 111 97
0.540906 -0.319138 2.55791 133 109 85
0.57807 -0.321021 2.57989 133 108 88
0.607253 -0.317227 2.56252 131 105 90
0.644941 -0.319095 2.58454 131 110 89
0.678376 -0.318132 2.58686 134 110 86
0.711812 -0.317169 2.58918 125 100 80
0.745247 -0.316206 2.5915 130 108 85
0.778683 -0.315243 2.59383 130 101 83
0.812119 -0.314281 2.59615 131 102 68
0.839466 -0.31054 2.57865 127 104 73
0.885675 -0.315271 2.62168 134 107 86
0.919387 -0.3143 2.62402 131 103 89
0.953098 -0.313329 2.62636 131 109 88
0.979296 -0.309466 2.60777 120 104 81
0.990532 -0.300283 2.55035 129 106 88
1.01552 -0.29661 2.53269 139 111 89
1.02538 -0.287932 2.47824 123 101 77
1.04237 -0.282158 2.44471 127 97 89
1.05131 -0.274129 2.39429 125 103 90
1.06712 -0.2687 2.36271 128 108 81
1.08252 -0.263438 2.33213 129 105 93
-1.10992 -0.269379 1.97827 184 170 161
-1.09009 -0.270507 1.99189 199 180 176
-1.063 -0.269727 1.99377 199 180 176
-1.03592 -0.268947 1.99565 173 153 146
-1.03082 -0.274466 2.03679 204 183 178
-1.00318 -0.27367 2.03871 202 187 182
-0.982326 -0.274911 2.05342 172 154 154
-0.954509 -0.27411 2.05535 202 188 177
-0.926692 -0.273309 2.05728 195 180 173
-0.898876 -0.272508 2.05921 169 151 141
-0.884127 -0.276049 2.08879 197 178 171
-0.855924 -0.275237 2.09075 203 184 178
-0.833868 -0.276585 2.10656 173 158 161
-0.805471 -0.275767 2.10853 196 182 173
-0.782835 -0.277098 2.12438 197 183 172
-0.754245 -0.276275 2.12636 180 162 150
-0.725655 -0.275451 2.12835 204 183 180
-0.702247 -0.27676 2.14425 199 179 180
-0.673463 -0.275931 2.14625 178 161 153
-0.64468 -0.275102 2.14825 192 176 161
-0.615897 -0.274273 2.15025 195 178 171
-0.591837 -0.275705 2.16722 191 174 167
-0.567362 -0.277125 2.18421 196 179 171
-0.542474 -0.278533 2.20124 169 149 142
-0.51307 -0.277686 2.20328 196 178 168
-0.48756 -0.279076 2.22035 178 160 146
-0.457948 -0.278223 2.22241 188 170 156
-0.428337 -0.27737 2.22446 188 170 160
-0.401999 -0.278736 2.24159 177 158 141
-0.369113 -0.275665 2.22858 179 165 156
-0.342361 -0.277019 2.24573 160 146 137
-0.315372 -0.278508 2.26392 184 166 156
-0.287941 -0.279984 2.28214 185 171 162
-0.25768 -0.279113 2.28425 181 160 157
-0.229587 -0.28057 2.30251 171 153 131
-0.199105 -0.279692 2.30463 176 155 150
-0.168624 -0.278814 2.30675 185 160 153
-0.139647 -0.280246 2.32508 180 160 153
-0.108944 -0.279362 2.32721 158 136 125
-0.0793708 -0.280918 2.3466 176 158 146
-0.04754 -0.277593 2.33148 170 145 140
-0.0181564 -0.281563 2.36819 177 158 143
0.0125906 -0.283086 2.38766 169 151 141
0.0429916 -0.294958 2.48154 138 112 99
0.0755428 -0.28878 2.44607 122 95 76
0.107977 -0.290395 2.46668 144 116 92
0.139819 -0.286929 2.45054 145 118 97
0.172749 -0.28853 2.47118 146 119 98
0.205136 -0.287597 2.47343 139 109 99
0.237522 -0.286664 2.47568 145 113 98
0.273156 -0.291021 2.51691 139 111 99
0.306067 -0.290073 2.51919 144 115 107
0.338978 -0.289125 2.52148 137 111 84
0.3743 -0.290799 2.54331 136 108 94
0.4048 -0.287229 2.52605 141 110 92
0.437711 -0.286281 2.52834 143 119 91
0.47382 -0.287933 2.55022 146 110 98
0.503533 -0.284386 2.53291 135 113 89
0.540166 -0.286022 2.55483 132 110 87
0.577324 -0.287643 2.57679 134 110 72
0.610759 -0.28668 2.57911 132 112 85
0.644195 -0.285717 2.58143 133 106 89
0.677631 -0.284754 2.58376 132 105 88
0.711066 -0.283791 2.58608 132 108 98
0.744502 -0.282829 2.5884 134 113 92
0.777937 -0.281866 2.59072 127 106 75
0.811373 -0.280903 2.59305 127 97 95
0.844808 -0.27994 2.59537 127 102 82
0.891602 -0.284258 2.63941 125 97 85
0.918635 -0.280646 2.62089 125 99 86
0.952346 -0.279676 2.62324 119 97 76
0.978551 -0.276088 2.60466 130 109 88
0.989803 -0.26769 2.54732 125 99 82
1.00754 -0.261939 2.51083 123 100 92
1.01759 -0.254142 2.45748 126 101 79
1.03436 -0.248843 2.42398 135 111 85
1.05063 -0.2437 2.39146 128 114 85
1.07378 -0.240767 2.37675 123 97 96
1.08894 -0.235798 2.34517 126 101 97
-1.11778 -0.244249 1.98749 178 160 156
-1.09838 -0.245352 2.00208 204 184 183
-1.07862 -0.246445 2.01669 191 177 168
-1.05118 -0.245655 2.0186 167 148 144
-1.02373 -0.244865 2.0205 204 189 184
-1.00379 -0.24608 2.03615 195 180 173
-0.982947 -0.247142 2.05083 171 153 151
-0.962248 -0.248336 2.06653 194 179 176
-0.934238 -0.247529 2.06848 191 178 172
-0.906228 -0.246723 2.07042 173 156 149
-0.884756 -0.247894 2.08617 200 180 179
-0.862898 -0.249055 2.10195 198 179 173
-0.834501 -0.248237 2.10392 179 162 152
-0.806104 -0.247419 2.10589 192 173 167
-0.783473 -0.248557 2.12173 194 180 177
-0.760455 -0.249684 2.13758 168 151 143
-0.731672 -0.248855 2.13958 191 174 164
-0.702889 -0.248026 2.14158 201 183 173
-0.679454 -0.249269 2.15849 174 156 154
-0.655606 -0.2505 2.17542 192 174 170
-0.621474 -0.2476 2.16251 195 176 172
-0.597211 -0.248819 2.17948 189 169 158
-0.568014 -0.247978 2.18151 192 175 167
-0.547443 -0.251221 2.21349 160 143 135
-0.517832 -0.250368 2.21554 188 171 164
-0.49212 -0.251545 2.23261 179 162 152
-0.462301 -0.250687 2.23468 184 165 159
-0.432482 -0.249828 2.23675 185 169 169
-0.406161 -0.251116 2.25487 171 152 138
-0.372845 -0.24811 2.24089 183 166 159
-0.343026 -0.247252 2.24297 168 145 137
-0.316042 -0.24852 2.26114 174 157 150
-0.293842 -0.254018 2.31156 183 166 159
-0.260748 -0.251019 2.29757 179 164 157
-0.232438 -0.252249 2.31583 170 151 137
-0.201736 -0.251365 2.31796 180 162 150
-0.171034 -0.250481 2.32009 184 165 158
-0.141935 -0.251816 2.33943 174 155 148
-0.110998 -0.250926 2.34158 154 134 123
-0.0800608 -0.250035 2.34373 169 149 140
-0.049124 -0.249144 2.34588 160 138 127
-0.0188516 -0.250445 2.36529 172 150 137
0.0110053 -0.256234 2.42033 179 159 152
0.0422634 -0.262366 2.47851 137 114 98
0.074826 -0.256697 2.44309 128 105 91
0.106964 -0.255772 2.44533 139 112 83
0.139641 -0.257132 2.46593 145 118 101
0.172027 -0.256199 2.46818 149 119 85
0.204413 -0.255267 2.47043 143 117 94
0.238155 -0.256724 2.49212 149 118 90
0.27404 -0.260549 2.53332 145 117 103
0.307213 -0.259594 2.53562 139 113 88
0.340387 -0.258638 2.53793 148 112 100
0.37356 -0.257683 2.54023 141 114 97
0.406733 -0.256728 2.54253 142 115 85
0.439907 -0.255772 2.54484 135 115 90
0.47308 -0.254817 2.54714 134 108 73
0.506253 -0.253861 2.54945 133 108 86
0.539426 -0.252906 2.55175 134 108 85
0.576578 -0.254265 2.57368 142 115 85
0.614478 -0.255731 2.59669 137 112 82
0.643449 -0.252339 2.57833 136 114 90
0.681901 -0.253789 2.60137 133 107 92
0.715613 -0.252818 2.60371 131 103 82
0.749325 -0.251847 2.60606 128 105 87
0.777192 -0.248488 2.58762 125 104 77
0.810627 -0.247525 2.58995 136 104 93
0.85046 -0.248935 2.61308 125 102 88
0.884171 -0.247964 2.61542 131 107 81
0.924832 -0.24935 2.63862 124 99 92
0.95882 -0.248371 2.64098 121 99 86
0.977805 -0.24271 2.60156 126 99 92
0.989075 -0.235098 2.54429 125 108 82
1.00683 -0.229856 2.50784 129 102 93
1.02397 -0.22476 2.47237 125 100 93
1.04098 -0.219923 2.43893 120 93 84
1.05705 -0.215113 2.40542 129 105 95
1.06578 -0.208724 2.35714 124 97 78
1.08827 -0.206031 2.34241 118 101 71
-1.12625 -0.21892 1.99765 164 145 141
-1.10668 -0.219839 2.01224 195 177 167
-1.07172 -0.217349 2.00144 189 172 165
-1.05179 -0.218258 2.01605 162 147 140
-1.03205 -0.219287 2.03166 204 190 181
-1.01138 -0.220174 2.04632 193 176 166
-0.983567 -0.219373 2.04825 184 167 160
-0.969996 -0.222176 2.07768 195 178 168
-0.941792 -0.221364 2.07964 196 179 172
-0.913589 -0.220552 2.0816 176 158 158
-0.891928 -0.221525 2.09734 195 180 175
-0.869881 -0.222487 2.11311 191 174 166
-0.835134 -0.219889 2.10129 183 164 157
-0.806738 -0.219071 2.10326 198 179 175
-0.789881 -0.22178 2.13291 196 183 164
-0.761097 -0.220951 2.13491 172 151 148
-0.732314 -0.220122 2.13691 198 177 172
-0.703531 -0.219293 2.13891 189 172 162
-0.680101 -0.220329 2.1558 168 148 147
-0.656257 -0.221353 2.17271 189 173 160
-0.62706 -0.220512 2.17474 189 171 161
-0.602595 -0.221519 2.1917 191 166 161
-0.57319 -0.220672 2.19374 194 177 170
-0.548104 -0.22166 2.21074 151 134 126
-0.522604 -0.222637 2.22777 188 169 165
-0.492785 -0.221778 2.22984 184 167 160
-0.462966 -0.22092 2.23191 181 158 150
-0.433148 -0.220061 2.23398 181 166 159
-0.406831 -0.221128 2.25209 169 149 140
-0.376791 -0.220263 2.25417 177 162 155
-0.349811 -0.221311 2.27232 165 146 139
-0.319551 -0.220439 2.27443 175 156 150
-0.291909 -0.221468 2.29262 183 165 155
-0.263825 -0.222484 2.31085 174 160 149
-0.233123 -0.2216 2.31298 175 158 151
-0.204498 -0.222715 2.33226 179 158 155
-0.171718 -0.219832 2.31725 177 161 148
-0.142625 -0.220933 2.33656 175 158 148
-0.111688 -0.220042 2.33871 159 132 121
-0.0818899 -0.221123 2.35807 173 149 139
-0.0507184 -0.220225 2.36024 160 141 124
-0.0202166 -0.221286 2.37965 180 157 143
0.010294 -0.2244 2.41737 172 155 135
0.0413113 -0.231947 2.49479 133 116 90
0.0741455 -0.226667 2.45842 130 112 90
0.106532 -0.225734 2.46067 141 116 94
0.139481 -0.226953 2.48229 145 119 94
0.17213 -0.226012 2.48456 143 113 103
0.204779 -0.225072 2.48682 142 115 94
0.238777 -0.22626 2.50851 141 115 88
0.2733 -0.227433 2.53024 142 119 101
0.306474 -0.226478 2.53254 138 114 90
0.339647 -0.225522 2.53485 142 118 90
0.37282 -0.224567 2.53715 138 111 90
0.405993 -0.223612 2.53946 139 113 90
0.439167 -0.222656 2.54176 141 109 96
0.475526 -0.223776 2.56361 131 102 84
0.505513 -0.220745 2.54637 136 109 90
0.538686 -0.21979 2.54868 136 109 90
0.580014 -0.223048 2.59122 136 111 91
0.613726 -0.222077 2.59356 131 103 91
0.647438 -0.221107 2.5959 134 109 89
0.681149 -0.220136 2.59824 131 108 90
0.714861 -0.219165 2.60058 128 105 89
0.748573 -0.218194 2.60293 130 106 94
0.782284 -0.217223 2.60527 127 110 84
0.815996 -0.216252 2.60761 125 103 82
0.849708 -0.215281 2.60995 122 101 72
0.890086 -0.2164 2.6331 124 96 92
0.924074 -0.215421 2.63546 121 101 76
0.958062 -0.214442 2.63783 120 98 75
0.984554 -0.211398 2.61932 131 105 92
0.99573 -0.20446 2.5611 120 101 87
1.00611 -0.197774 2.50486 124 105 65
1.03076 -0.195011 2.48827 120 98 84
1.03298 -0.187076 2.41824 131 107 95
1.05637 -0.184464 2.40257 130 110 85
1.06511 -0.178737 2.35435 125 103 105
1.0876 -0.176264 2.33964 126 107 93
-1.12686 -0.191702 1.99512 167 158 143
-1.10729 -0.192442 2.00969 201 184 174
-1.07985 -0.191652 2.0116 193 180 174
-1.0603 -0.192493 2.02718 181 168 159
-1.03267 -0.191697 2.0291 196 179 172
-1.01952 -0.194026 2.05744 192 178 167
-0.991508 -0.193219 2.05939 194 175 171
-0.970625 -0.194021 2.07506 187 179 168
-0.949355 -0.194813 2.09076 194 176 172
-0.920958 -0.193995 2.09273 185 164 159
-0.892561 -0.193177 2.09471 195 177 167
-0.870519 -0.193946 2.11046 191 173 163
-0.841928 -0.193123 2.11245 193 174 167
-0.813338 -0.192299 2.11443 193 172 167
-0.796709 -0.194728 2.14505 197 178 172
-0.767719 -0.193893 2.14706 179 161 159
-0.738728 -0.193058 2.14908 190 172 162
-0.715303 -0.193888 2.16594 194 175 171
-0.686106 -0.193047 2.16797 168 152 137
-0.66206 -0.193859 2.18488 192 174 164
-0.632655 -0.193012 2.18693 191 176 171
-0.603251 -0.192165 2.18897 186 166 155
-0.573846 -0.191318 2.19101 184 167 160
-0.553087 -0.193729 2.22293 158 136 138
-0.523269 -0.19287 2.225 184 165 161
-0.497619 -0.193736 2.24304 187 165 168
-0.471528 -0.194588 2.26111 178 161 151
-0.441268 -0.193717 2.26321 186 169 162
-0.411007 -0.192846 2.26531 166 145 140
-0.377461 -0.190275 2.25139 177 158 152
-0.350486 -0.191103 2.26952 170 151 137
-0.32307 -0.191917 2.28767 177 160 140
-0.297999 -0.194504 2.32294 178 160 158
-0.26451 -0.191835 2.308 179 160 154
-0.236125 -0.192722 2.32724 176 151 146
-0.205188 -0.191832 2.32939 174 154 145
-0.174251 -0.190941 2.33154 176 157 151
-0.144928 -0.191801 2.35085 171 157 154
-0.115136 -0.192647 2.37019 151 131 124
-0.0825852 -0.190005 2.35518 170 152 138
-0.0523233 -0.190838 2.37455 157 132 125
-0.021592 -0.191658 2.39396 181 154 147
0.0091166 -0.194384 2.43266 176 153 145
0.0403475 -0.201005 2.51103 131 110 93
0.0734232 -0.194336 2.45542 141 116 85
0.106104 -0.1953 2.47699 140 111 93
0.138753 -0.19436 2.47926 142 116 89
0.172221 -0.195302 2.50089 144 119 99
0.205132 -0.194354 2.50317 142 116 89
0.238043 -0.193406 2.50546 144 120 96
0.27256 -0.194317 2.52716 144 115 99
0.305734 -0.193362 2.52946 140 118 94
0.341038 -0.19425 2.55122 134 115 83
0.374473 -0.193287 2.55354 138 112 97
0.407909 -0.192324 2.55587 142 117 97
0.438427 -0.18954 2.53868 139 108 88
0.47478 -0.190398 2.56051 138 114 88
0.508216 -0.189435 2.56283 135 107 83
0.545551 -0.190366 2.58575 137 111 96
0.579262 -0.189395 2.58809 134 108 91
0.612974 -0.188424 2.59043 138 109 77
0.651414 -0.189322 2.61342 133 107 90
0.685401 -0.188344 2.61578 128 109 77
0.719389 -0.187365 2.61814 130 106 82
0.753377 -0.186386 2.6205 131 107 83
0.787365 -0.185407 2.62286 126 98 74
0.821352 -0.184428 2.62523 131 109 86
0.85534 -0.183449 2.62759 122 102 91
0.902982 -0.186189 2.67255 125 94 89
0.930253 -0.183298 2.65311 121 97 85
0.964516 -0.182311 2.65549 117 90 73
0.976314 -0.175954 2.59536 131 104 83
0.994996 -0.171606 2.55805 131 103 82
1.00539 -0.165691 2.50188 124 102 79
1.02256 -0.161587 2.4665 130 103 74
1.03229 -0.156193 2.41537 121 95 78
1.05568 -0.153814 2.39972 128 99 85
1.06444 -0.148749 2.35157 130 104 81
1.08694 -0.146497 2.33687 138 108 97
-1.13535 -0.165836 2.00524 186 171 174
-1.11619 -0.166495 2.02077 202 183 179
-1.08856 -0.165699 2.02269 187 168 161
-1.06092 -0.164903 2.02461 182 164 160
-1.03328 -0.164107 2.02653 195 173 162
-1.02766 -0.167491 2.06852 187 170 163
-0.999457 -0.166679 2.07048 186 166 167
-0.978385 -0.167283 2.08615 191 172 158
-0.949988 -0.166465 2.08813 190 177 168
-0.928336 -0.167052 2.10384 188 174 163
-0.899746 -0.166229 2.10582 191 173 169
-0.871156 -0.165405 2.10781 194 177 170
-0.836401 -0.163194 2.09602 187 170 163
-0.819948 -0.165141 2.12557 196 177 173
-0.797356 -0.165788 2.14236 199 180 176
-0.768365 -0.164953 2.14437 184 164 163
-0.745152 -0.165582 2.16121 191 168 162
-0.715954 -0.164741 2.16324 190 174 161
-0.686757 -0.1639 2.16526 173 155 145
-0.662715 -0.164505 2.18215 190 168 157
-0.633311 -0.163658 2.1842 189 172 164
-0.608648 -0.164245 2.20113 178 159 152
-0.579036 -0.163392 2.20319 190 172 162
-0.553752 -0.163961 2.22016 163 145 135
-0.528329 -0.164613 2.23816 181 164 154
-0.494115 -0.162244 2.22431 185 166 162
-0.476156 -0.165878 2.27426 177 163 152
-0.441943 -0.163509 2.2604 181 167 158
-0.415194 -0.164122 2.27849 162 142 135
-0.384712 -0.163244 2.28061 180 161 154
-0.354231 -0.162367 2.28273 172 154 142
-0.326599 -0.162954 2.30088 173 156 146
-0.298689 -0.163621 2.32007 178 161 145
-0.267752 -0.16273 2.32222 174 153 160
-0.236815 -0.161839 2.32437 172 149 141
-0.207967 -0.162478 2.34362 171 155 140
-0.174941 -0.160057 2.32867 179 155 151
-0.145624 -0.160683 2.34795 174 155 148
-0.115836 -0.161295 2.36727 158 138 129
-0.08443 -0.160391 2.36946 173 153 142
-0.0539386 -0.160983 2.38882 151 131 120
-0.0222977 -0.160072 2.39102 175 156 142
0.00839982 -0.162301 2.42968 171 149 136
0.0396076 -0.167889 2.50795 131 105 92
0.0727275 -0.163648 2.47169 136 110 83
0.105376 -0.162708 2.47396 139 114 92
0.138576 -0.163395 2.49555 141 117 89
0.171487 -0.162447 2.49783 143 116 89
0.204398 -0.1615 2.50012 140 118 94
0.238647 -0.162156 2.52178 137 109 87
0.273421 -0.162798 2.54347 136 114 90
0.306857 -0.161835 2.54579 145 110 90
0.340292 -0.160872 2.54812 141 113 91
0.37134 -0.158335 2.531 138 113 93
0.407163 -0.158946 2.55276 134 108 85
0.440599 -0.157984 2.55509 141 112 94
0.474034 -0.157021 2.55741 136 111 89
0.50747 -0.156058 2.55973 134 108 83
0.544799 -0.156712 2.58262 137 111 94
0.58685 -0.158961 2.62613 132 107 87
0.621114 -0.157974 2.62851 135 107 83
0.650656 -0.155393 2.61027 130 103 82
0.689641 -0.156 2.63327 133 105 93
0.723905 -0.155014 2.63565 124 99 95
0.758169 -0.154027 2.63803 122 99 93
0.792433 -0.15304 2.64041 126 104 83
0.820594 -0.150499 2.62207 123 102 85
0.860961 -0.151066 2.64517 120 93 84
0.902212 -0.151695 2.66934 117 98 84
0.936765 -0.150699 2.67174 123 94 76
0.963752 -0.148106 2.65231 119 98 79
0.983051 -0.144091 2.61307 120 99 80
0.994262 -0.138752 2.555 128 101 92
1.01191 -0.134957 2.51767 130 107 91
1.02933 -0.131342 2.48235 122 100 89
1.0389 -0.126569 2.43025 129 106 90
1.04791 -0.121986 2.38015 132 102 94
1.06377 -0.118761 2.34878 121 94 83
1.07921 -0.115636 2.3184 132 103 73
-1.13596 -0.138439 2.00269 178 161 153
-1.10852 -0.137649 2.0046 183 171 159
-1.08917 -0.138109 2.02013 191 174 167
-1.06888 -0.13847 2.03471 183 171 159
-1.04106 -0.137669 2.03665 195 175 166
-1.02829 -0.139336 2.06591 186 174 162
-1.00741 -0.139753 2.08155 182 169 161
-0.979018 -0.138935 2.08352 180 166 163
-0.957564 -0.139335 2.0992 184 169 162
-0.928974 -0.138511 2.10118 185 168 160
-0.900384 -0.137688 2.10317 188 170 166
-0.871794 -0.136865 2.10516 190 174 174
-0.843204 -0.136041 2.10714 183 165 163
-0.82059 -0.136408 2.1229 190 172 160
-0.798002 -0.136848 2.13967 191 173 171
-0.775001 -0.137276 2.15647 186 172 161
-0.751585 -0.137692 2.1733 188 164 162
-0.72218 -0.136845 2.17534 190 173 166
-0.692776 -0.135998 2.17738 178 160 150
-0.663371 -0.135151 2.17943 184 163 162
-0.63892 -0.135537 2.19633 193 172 167
-0.609308 -0.134685 2.19838 173 154 147
-0.584236 -0.135053 2.21533 188 167 162
-0.559038 -0.13549 2.23329 162 144 144
-0.533399 -0.135915 2.25129 183 165 155
-0.503138 -0.135044 2.25339 183 166 156
-0.476836 -0.135449 2.27143 176 156 145
-0.446355 -0.134571 2.27355 183 166 158
-0.41939 -0.134958 2.29164 152 135 125
-0.385392 -0.132816 2.27778 178 161 154
-0.357986 -0.13319 2.2959 165 151 142
-0.327284 -0.132305 2.29803 167 151 138
-0.299379 -0.132738 2.3172 182 163 156
-0.271005 -0.133156 2.3364 175 158 148
-0.239833 -0.132258 2.33857 167 144 136
-0.210755 -0.132657 2.35781 173 154 148
-0.179349 -0.131752 2.36 174 154 147
-0.147943 -0.130848 2.36218 172 152 145
-0.117926 -0.131219 2.38149 154 138 122
-0.0862852 -0.130308 2.38369 171 151 140
-0.0546443 -0.129397 2.38589 152 137 118
-0.0237291 -0.129815 2.40628 168 150 138
0.00768304 -0.130219 2.4267 157 137 126
0.0388677 -0.134773 2.50487 126 101 97
0.0719994 -0.131056 2.46866 134 106 92
0.104931 -0.131489 2.49021 142 117 95
0.137842 -0.130541 2.49249 137 114 96
0.170753 -0.129593 2.49478 147 122 91
0.204734 -0.129996 2.51639 134 110 82
0.237907 -0.12904 2.5187 145 120 98
0.272675 -0.12942 2.54037 142 115 88
0.306111 -0.128457 2.54269 136 116 89
0.339546 -0.127494 2.54501 135 111 87
0.372982 -0.126532 2.54734 132 114 92
0.406417 -0.125569 2.54966 142 117 97
0.439853 -0.124606 2.55198 137 115 94
0.476624 -0.125001 2.57481 136 113 82
0.510335 -0.12403 2.57715 134 115 75
0.544047 -0.123059 2.57949 133 110 92
0.586086 -0.124756 2.62295 129 108 89
0.620349 -0.123769 2.62533 132 103 89
0.654613 -0.122782 2.62771 129 105 81
0.694118 -0.123171 2.65173 139 109 81
0.728672 -0.122176 2.65413 129 102 95
0.763226 -0.121181 2.65653 121 96 74
0.79778 -0.120186 2.65894 132 105 84
0.832333 -0.119191 2.66134 127 99 85
0.866887 -0.118196 2.66374 129 99 73
0.901441 -0.1172 2.66614 120 100 75
0.943265 -0.117523 2.69032 112 97 74
0.970549 -0.11521 2.67094 126 108 72
0.982299 -0.110437 2.60994 126 109 89
1.00089 -0.107067 2.57171 123 106 88
1.01118 -0.102627 2.51466 132 104 92
1.02862 -0.0995077 2.47939 125 100 93
1.0382 -0.0954517 2.42736 121 98 82
1.05431 -0.092516 2.39402 129 105 81
1.0631 -0.0887737 2.34599 123 107 81
1.09314 -0.0879086 2.34808 130 105 83
-1.14506 -0.112111 2.01372 177 163 162
-1.12513 -0.112303 2.02827 182 165 155
-1.08979 -0.110519 2.01756 192 175 168
-1.0695 -0.110701 2.03213 183 170 161
-1.0494 -0.110947 2.0477 185 167 157
-1.02892 -0.111181 2.06329 190 173 165
-1.00805 -0.111405 2.07891 189 172 162
-0.986792 -0.111618 2.09456 175 160 153
-0.958202 -0.110794 2.09654 192 173 167
-0.929612 -0.109971 2.09853 189 171 167
-0.901022 -0.109147 2.10052 184 165 159
-0.872431 -0.108324 2.1025 186 173 154
-0.850015 -0.108503 2.11823 178 164 155
-0.827639 -0.108742 2.13497 188 167 164
-0.804849 -0.108969 2.15173 182 166 151
-0.781645 -0.109185 2.16853 182 169 160
-0.752241 -0.108338 2.17057 178 161 154
-0.722836 -0.107491 2.17261 183 165 163
-0.693432 -0.106644 2.17465 179 159 160
-0.669192 -0.10683 2.19152 186 166 159
-0.63958 -0.105977 2.19358 182 165 158
-0.609969 -0.105124 2.19564 166 148 144
-0.584901 -0.105286 2.21256 185 165 158
-0.564334 -0.106578 2.24638 161 145 132
-0.538479 -0.106776 2.26437 178 159 152
-0.507997 -0.105898 2.26648 179 162 155
-0.477516 -0.105021 2.2686 173 156 146
-0.450777 -0.105193 2.28665 174 157 150
-0.420075 -0.104309 2.28879 153 135 125
-0.389373 -0.103425 2.29092 174 156 152
-0.361943 -0.103636 2.31003 167 151 136
-0.331006 -0.102745 2.31218 176 156 145
-0.302872 -0.102936 2.33134 171 153 149
-0.2717 -0.102038 2.33351 172 155 147
-0.242862 -0.102209 2.35272 165 146 139
-0.211456 -0.101305 2.3549 168 150 138
-0.181914 -0.101455 2.37416 174 156 144
-0.148643 -0.0994958 2.35926 174 156 144
-0.118632 -0.0996329 2.37855 157 132 127
-0.0869909 -0.0987216 2.38075 174 149 127
-0.05535 -0.0978104 2.38295 157 134 126
-0.0244404 -0.0979805 2.40332 178 155 139
0.00597383 -0.100344 2.4611 157 133 121
0.0381279 -0.101657 2.50179 117 98 94
0.0712862 -0.0995825 2.48487 135 106 90
0.104197 -0.0986347 2.48715 145 116 100
0.137648 -0.0987905 2.50871 143 116 95
0.170821 -0.0978352 2.51101 142 116 93
0.203994 -0.0968798 2.51332 139 115 89
0.237168 -0.0959244 2.51562 139 115 87
0.273602 -0.0971724 2.55762 143 115 91
0.307314 -0.0962015 2.55997 145 113 98
0.341025 -0.0952306 2.56231 141 113 92
0.374737 -0.0942598 2.56465 139 114 92
0.408449 -0.0932889 2.56699 139 113 86
0.44216 -0.092318 2.56934 137 115 94
0.48253 -0.0935116 2.61263 133 106 87
0.513189 -0.0914505 2.59451 139 108 87
0.551057 -0.091538 2.61739 133 104 86
0.589686 -0.0916625 2.64133 132 104 90
0.619585 -0.0895644 2.62215 125 99 84
0.658794 -0.0896722 2.64613 130 100 90
0.693348 -0.0886771 2.64853 127 96 78
0.727901 -0.087682 2.65093 127 99 85
0.762455 -0.0866868 2.65333 129 103 78
0.797009 -0.0856917 2.65573 122 100 76
0.831563 -0.0846966 2.65813 126 103 87
0.872801 -0.0847459 2.68225 125 96 82
0.907645 -0.0837425 2.68467 130 102 90
0.942488 -0.082739 2.68709 121 95 70
0.969778 -0.0807161 2.66773 123 94 90
0.989017 -0.0777469 2.62757 123 96 79
1.00015 -0.0739508 2.56863 130 103 92
1.01046 -0.0702964 2.51166 124 97 86
1.02791 -0.0676733 2.47643 124 99 79
1.03022 -0.0635425 2.40675 125 110 87
1.04655 -0.0611282 2.37449 132 106 83
1.06243 -0.058786 2.3432 133 107 92
1.08494 -0.0571951 2.32857 147 107 97
-1.14568 -0.0845215 2.01116 178 159 153
-1.11804 -0.0837256 2.01308 167 150 132
-1.10605 -0.0845982 2.04121 179 164 157
-1.07804 -0.0837915 2.04315 171 161 152
-1.05775 -0.0838389 2.05871 167 153 153
-1.03708 -0.0838751 2.0743 190 171 165
-1.00868 -0.0830573 2.07628 178 165 156
-0.987429 -0.0830769 2.0919 165 148 141
-0.96579 -0.0830853 2.10756 188 170 166
-0.937007 -0.0822563 2.10956 189 172 165
-0.908224 -0.0814274 2.11156 172 152 151
-0.886266 -0.0814718 2.12825 188 170 160
-0.857276 -0.0806368 2.13026 188 170 166
-0.834698 -0.0806633 2.14699 174 156 146
-0.811705 -0.0806779 2.16375 188 171 163
-0.782301 -0.079831 2.1658 188 175 167
-0.752896 -0.0789842 2.16784 187 166 161
-0.729076 -0.0789749 2.18466 187 167 166
-0.694087 -0.0772905 2.17193 185 165 164
-0.675022 -0.0780949 2.20358 181 161 150
-0.640241 -0.0764165 2.19083 182 164 152
-0.615385 -0.0763774 2.20772 154 142 130
-0.595269 -0.0772417 2.24147 178 161 153
-0.56964 -0.0772254 2.25942 172 157 154
-0.539158 -0.0763476 2.26154 176 157 150
-0.508677 -0.0754697 2.26366 179 160 154
-0.482164 -0.075428 2.28167 168 151 144
-0.451462 -0.0745438 2.2838 177 158 152
-0.42076 -0.0736596 2.28594 152 133 116
-0.39357 -0.0736435 2.30501 178 158 157
-0.362633 -0.0727525 2.30716 165 147 133
-0.334739 -0.0727161 2.32628 172 154 142
-0.306375 -0.0726662 2.34544 173 154 147
-0.277542 -0.0726028 2.36463 173 155 143
-0.243563 -0.0708573 2.3498 165 142 136
-0.21426 -0.0707803 2.36902 171 152 138
-0.182619 -0.0698691 2.37122 173 153 146
-0.150978 -0.0689578 2.37342 167 147 136
-0.12082 -0.0689013 2.39371 154 131 125
-0.0889304 -0.0679829 2.39593 164 150 137
-0.057041 -0.0670645 2.39814 152 127 120
-0.0258884 -0.0669794 2.4185 177 154 140
0.00624947 -0.0660539 2.42074 155 135 124
0.037388 -0.0685407 2.49871 124 104 95
0.0705613 -0.0675853 2.50102 138 109 91
0.103735 -0.0666299 2.50332 137 114 96
0.136908 -0.0656746 2.50563 141 118 87
0.170081 -0.0647192 2.50793 136 111 91
0.203254 -0.0637638 2.51024 135 112 80
0.236428 -0.0628084 2.51254 134 111 95
0.27285 -0.0635189 2.5545 139 113 90
0.306562 -0.0625481 2.55684 137 110 89
0.342492 -0.0624156 2.57955 139 113 90
0.373985 -0.0606063 2.56152 131 111 87
0.410467 -0.0604579 2.58428 134 114 81
0.447502 -0.0602937 2.60707 135 111 87
0.481766 -0.0593069 2.60945 133 106 87
0.516029 -0.0583201 2.61183 136 104 91
0.550293 -0.0573333 2.61421 139 108 88
0.588916 -0.0571684 2.63812 130 99 81
0.62347 -0.0561733 2.64052 134 103 85
0.658023 -0.0551781 2.64292 128 102 77
0.692577 -0.054183 2.64532 121 99 78
0.727131 -0.0531879 2.64772 137 108 90
0.767493 -0.0529729 2.67175 127 101 76
0.802336 -0.0519694 2.67418 126 101 79
0.830792 -0.0502025 2.65492 127 102 97
0.872024 -0.0499624 2.67902 119 97 74
0.906867 -0.048959 2.68144 122 96 79
0.948969 -0.0486939 2.70559 114 93 66
0.969007 -0.046222 2.66453 122 105 97
0.980795 -0.0431305 2.60368 129 105 95
0.999413 -0.0408348 2.56555 125 103 82
1.01735 -0.0386038 2.52839 121 100 83
1.0272 -0.035839 2.47347 123 102 71
1.02953 -0.032659 2.40388 132 106 89
1.05295 -0.0312176 2.38833 132 105 84
1.06176 -0.0287984 2.34042 128 107 90
1.08428 -0.0274279 2.32581 120 99 80
-1.15419 -0.0575663 2.02117 177 155 158
-1.13468 -0.057443 2.03666 154 142 130
-1.11479 -0.0573086 2.05218 175 164 160
-1.08658 -0.0564963 2.05414 176 163 154
-1.05838 -0.0556841 2.0561 161 144 134
-1.04525 -0.056183 2.08528 181 161 152
-1.01666 -0.0553596 2.08727 175 162 153
-0.988067 -0.0545362 2.08925 155 140 133
-0.966432 -0.0543517 2.10489 181 166 163
-0.937649 -0.0535227 2.10689 178 165 159
-0.915903 -0.0533663 2.12354 158 139 135
-0.886913 -0.0525314 2.12556 187 168 161
-0.864546 -0.0523571 2.14226 186 170 155
-0.835349 -0.0515163 2.14428 175 156 152
-0.812361 -0.0513241 2.16103 180 162 158
-0.782957 -0.0504773 2.16307 182 163 157
-0.759348 -0.0502672 2.17985 178 159 153
-0.735325 -0.0500452 2.19667 182 164 154
-0.700125 -0.0485616 2.18397 179 162 155
-0.681206 -0.0489879 2.21658 184 158 159
-0.651167 -0.0481227 2.21867 177 159 157
-0.621127 -0.0472576 2.22075 160 140 133
-0.595944 -0.0470335 2.23866 183 167 152
-0.57032 -0.0467967 2.25659 177 158 151
-0.544253 -0.0465472 2.27456 177 160 153
-0.513551 -0.045663 2.27669 181 161 162
-0.482849 -0.0447788 2.27882 166 151 144
-0.456133 -0.0445419 2.29784 174 154 153
-0.425196 -0.043651 2.29999 147 134 118
-0.397777 -0.0433938 2.31906 176 157 151
-0.366605 -0.0424961 2.32123 167 148 142
-0.338482 -0.0422187 2.34034 166 149 141
-0.309889 -0.0419277 2.35949 167 153 144
-0.278248 -0.0410165 2.36169 164 147 137
-0.246607 -0.0401052 2.36389 156 142 131
-0.214966 -0.039194 2.36609 160 145 140
-0.18531 -0.0389038 2.38632 165 146 142
-0.15342 -0.0379854 2.38854 167 151 136
-0.121531 -0.037067 2.39075 153 129 125
-0.0896417 -0.0361486 2.39297 157 139 137
-0.0577523 -0.0352302 2.39518 145 129 116
-0.0266052 -0.034897 2.41552 169 147 133
0.00399616 -0.0357699 2.47418 145 131 104
0.0366481 -0.0354247 2.49564 116 90 91
0.0698214 -0.0344693 2.49794 144 119 99
0.102995 -0.0335139 2.50025 142 116 89
0.136168 -0.0325586 2.50255 135 108 89
0.170131 -0.0321756 2.52409 132 108 82
0.203567 -0.0312127 2.52642 137 114 96
0.237002 -0.0302497 2.52874 139 118 91
0.272098 -0.0298655 2.55137 138 113 93
0.307746 -0.0294653 2.57404 139 115 91
0.341734 -0.0284865 2.5764 137 111 88
0.375721 -0.0275077 2.57876 131 105 88
0.412474 -0.0270757 2.60151 137 112 90
0.446737 -0.0260889 2.60389 125 102 88
0.481001 -0.0251022 2.60627 134 107 86
0.515265 -0.0241154 2.60865 129 104 82
0.549529 -0.0231286 2.61103 127 104 86
0.588145 -0.0226743 2.63491 131 110 81
0.627341 -0.0222033 2.65884 123 102 71
0.662185 -0.0211998 2.66126 123 98 91
0.697028 -0.0201963 2.66368 120 95 73
0.731872 -0.0191928 2.6661 124 96 82
0.766716 -0.0181894 2.66852 125 99 82
0.801559 -0.0171859 2.67094 122 93 85
0.836403 -0.0161824 2.67336 126 105 84
0.871247 -0.0151789 2.67578 124 104 71
0.913052 -0.0146328 2.69989 121 100 73
0.948185 -0.013621 2.70233 118 94 66
0.975778 -0.0121685 2.68305 120 99 82
0.980043 -0.00947702 2.60055 127 98 90
0.998673 -0.00771885 2.56247 119 97 86
1.01663 -0.00601146 2.52536 121 103 99
1.02649 -0.00400462 2.47051 119 100 85
1.03611 -0.00209849 2.41868 115 102 68
1.05226 -0.000568446 2.38548 128 102 85
1.06109 0.00118933 2.33763 132 104 92
1.08361 0.0023393 2.32304 125 105 80
-1.16332 -0.0302878 2.03212 169 160 155
-1.13531 -0.0294812 2.03406 149 137 121
-1.11542 -0.0291538 2.04956 159 147 135
-1.08721 -0.0283415 2.05152 161 152 147
-1.05901 -0.0275293 2.05348 142 132 123
-1.04588 -0.0276423 2.08263 157 145 129
-1.01729 -0.0268189 2.08461 161 144 134
-1.00352 -0.0269307 2.11481 130 124 108
-0.974531 -0.0260958 2.11683 160 139 134
-0.94554 -0.0252609 2.11884 157 142 135
-0.923593 -0.0248918 2.13549 139 122 114
-0.894395 -0.024051 2.13752 150 135 128
-0.865198 -0.0232101 2.13955 154 139 132
-0.836 -0.0223692 2.14158 141 124 117
-0.819231 -0.0224123 2.17299 150 136 127
-0.78962 -0.0215595 2.17505 153 136 120
-0.765808 -0.0211368 2.19183 143 126 118
-0.73599 -0.020278 2.1939 149 133 120
-0.706171 -0.0194193 2.19597 149 130 123
-0.687401 -0.0194398 2.22954 140 120 109
-0.65714 -0.0185683 2.23165 137 127 115
-0.62688 -0.0176968 2.23375 128 111 104
-0.596619 -0.0168253 2.23585 134 118 105
-0.57564 -0.0167823 2.26957 140 124 111
-0.544938 -0.015898 2.27171 128 111 101
-0.518697 -0.0154404 2.29067 136 118 106
-0.491987 -0.0149693 2.30967 128 105 97
-0.464807 -0.0144846 2.3287 133 108 101
-0.433401 -0.0135801 2.33088 116 97 82
-0.401995 -0.0126756 2.33307 126 104 90
-0.370588 -0.0117711 2.33525 128 105 97
-0.342235 -0.0112527 2.35436 126 105 86
-0.313579 -0.010743 2.3745 128 106 93
-0.284425 -0.010219 2.39468 117 97 86
-0.252287 -0.00929345 2.39691 122 101 80
-0.220149 -0.00836789 2.39914 123 103 92
-0.188012 -0.00744234 2.40137 122 103 88
-0.157615 -0.00688259 2.42164 130 107 91
-0.126805 -0.00632844 2.44294 132 109 91
-0.0941568 -0.00538817 2.4452 143 119 95
-0.0625598 -0.00481135 2.46656 137 114 98
-0.0296489 -0.00386353 2.46884 144 120 94
0.00273496 -0.00326405 2.49025 150 123 104
0.0359082 -0.00230868 2.49256 152 130 107
0.0690815 -0.0013533 2.49486 131 110 89
0.102514 -0.000723601 2.51634 142 111 90
0.13595 0.000239326 2.51867 137 115 94
0.169386 0.00120225 2.52099 140 114 87
0.203923 0.00184622 2.54356 133 112 93
0.236257 0.00312811 2.52564 139 113 90
0.274654 0.00318184 2.5888 135 114 87
0.308918 0.00416863 2.59119 145 119 104
0.343182 0.00515541 2.59357 135 111 87
0.377446 0.00614219 2.59595 136 113 95
0.411709 0.00712897 2.59833 136 109 92
0.445973 0.00811575 2.60071 128 106 85
0.480237 0.00910254 2.60309 132 105 84
0.518267 0.00982957 2.62691 120 98 75
0.552821 0.0108247 2.62931 124 102 78
0.59172 0.0115768 2.65318 128 101 84
0.626564 0.0125802 2.65561 127 105 84
0.666333 0.0133573 2.67954 125 99 84
0.701467 0.0143692 2.68198 124 96 82
0.7366 0.015381 2.68443 123 97 80
0.771734 0.0163928 2.68687 116 94 70
0.806867 0.0174047 2.68931 127 98 84
0.835626 0.0186011 2.67013 111 93 73
0.877134 0.0194283 2.69419 123 97 72
0.912268 0.0204401 2.69663 114 93 74
0.947402 0.021452 2.69907 120 95 75
0.967466 0.0227663 2.65811 118 96 82
0.986743 0.0240403 2.61811 122 98 86
0.997933 0.0253971 2.5594 120 97 83
1.0159 0.0265809 2.52233 115 102 67
1.02578 0.0278298 2.46755 122 102 75
1.03542 0.0290193 2.41579 137 107 96
1.05158 0.0300807 2.38263 120 100 76
1.06042 0.031177 2.33484 125 102 84
1.08295 0.0321065 2.32027 128 107 78
-1.17245 -0.00262347 2.04303 137 121 105
-1.14425 -0.00181122 2.04499 121 101 92
-1.12417 -0.00128536 2.06048 138 118 111
-1.1037 -0.000748362 2.076 134 118 105
-1.07511 7.50162e-005 2.07799 132 113 96
-1.06215 0.000339777 2.10809 134 115 108
-1.04103 0.000891705 2.12467 139 122 106
-1.01184 0.00173258 2.1267 138 120 110
-0.982639 0.00257345 2.12872 147 129 117
-0.960696 0.00314923 2.14535 146 122 120
-0.931291 0.00399606 2.1474 144 122 108
-0.901887 0.0048429 2.14944 144 125 118
-0.885748 0.00519535 2.18077 149 130 116
-0.855929 0.00605411 2.18285 140 123 97
-0.826111 0.00691287 2.18492 150 127 119
-0.809117 0.00728245 2.21833 147 124 106
-0.778857 0.00815394 2.22043 151 128 110
-0.748596 0.00902543 2.22253 145 124 105
-0.724086 0.0096714 2.24035 139 118 97
-0.693605 0.0105492 2.24246 147 119 107
-0.674071 0.0109882 2.27706 146 124 113
-0.643134 0.0118792 2.2792 145 121 109
-0.612198 0.0127701 2.28135 145 123 102
-0.591133 0.0132495 2.31706 147 124 116
-0.559726 0.014154 2.31924 144 115 109
-0.52832 0.0150585 2.32142 145 123 110
-0.501146 0.0157774 2.34043 148 124 114
-0.473737 0.0164994 2.36046 142 113 97
-0.441848 0.0174178 2.36268 148 121 102
-0.409958 0.0183362 2.36489 139 113 96
-0.381556 0.0190867 2.385 141 122 107
-0.349418 0.0200123 2.38723 141 116 94
-0.32027 0.0207843 2.40738 141 115 98
-0.290777 0.0215626 2.42856 139 111 97
-0.258128 0.0225028 2.43083 133 107 106
-0.22548 0.0234431 2.4331 134 108 95
-0.194938 0.0242515 2.45436 132 112 87
-0.162027 0.0251994 2.45664 133 110 92
-0.129116 0.0261472 2.45893 131 105 88
-0.0962048 0.027095 2.46122 132 110 89
-0.0632939 0.0280428 2.4635 124 102 88
-0.0311782 0.0288966 2.48487 130 110 86
0.00146206 0.0297655 2.50627 130 106 78
0.0348976 0.0307284 2.5086 131 106 84
0.0683332 0.0316913 2.51092 137 108 90
0.101769 0.0326543 2.51324 132 112 87
0.135748 0.0335579 2.53574 135 108 91
0.16864 0.0345801 2.51789 138 109 93
0.203171 0.0354997 2.54043 136 107 93
0.236883 0.0364706 2.54277 139 114 94
0.27389 0.0373866 2.58563 139 115 89
0.308154 0.0383733 2.58801 138 115 97
0.342417 0.0393601 2.59039 140 114 97
0.376681 0.0403469 2.59277 137 110 91
0.413835 0.0413383 2.6165 135 108 87
0.445209 0.0423205 2.59753 132 107 87
0.482942 0.0433285 2.6213 130 103 94
0.517496 0.0443237 2.6237 129 102 83
0.55205 0.0453188 2.6261 128 106 85
0.590943 0.0463603 2.64995 124 101 85
0.625787 0.0473638 2.65237 119 100 86
0.665549 0.0484303 2.67628 126 96 86
0.70614 0.0495169 2.70126 124 98 83
0.741577 0.0505374 2.70372 122 103 73
0.777014 0.051558 2.70618 121 100 81
0.812452 0.0525786 2.70865 115 99 74
0.841217 0.0534894 2.68849 118 87 85
0.883326 0.0546197 2.71357 113 96 80
0.926043 0.0557676 2.73869 111 96 75
0.946618 0.0565249 2.69581 120 99 82
0.974223 0.0573986 2.67658 114 94 85
0.985985 0.0579694 2.61496 119 102 82
1.00453 0.0586533 2.57596 125 99 100
1.01517 0.0591732 2.5193 120 99 78
1.02507 0.0596641 2.4646 124 103 86
1.03472 0.060137 2.4129 119 104 83
1.05089 0.0607299 2.37978 128 103 98
1.05975 0.0611647 2.33206 135 100 96
1.08979 0.0620298 2.33414 117 102 95
-1.19011 0.0253222 2.06739 136 118 98
-1.16984 0.0260465 2.08288 134 116 102
-1.14106 0.0268755 2.08488 130 112 88
-1.12078 0.0276103 2.10138 139 119 110
-1.10008 0.028357 2.1179 143 121 107
-1.07897 0.0291156 2.13445 135 113 102
-1.05744 0.0298862 2.15104 138 116 105
-1.02016 0.0308093 2.13854 137 113 111
-1.00569 0.0315275 2.16972 135 118 92
-0.975869 0.0323862 2.17179 139 117 103
-0.94605 0.033245 2.17386 135 110 90
-0.923533 0.0340542 2.19152 134 113 94
-0.893493 0.0349193 2.19361 134 109 89
-0.870313 0.0357477 2.21131 139 115 103
-0.846691 0.0365887 2.22905 136 116 91
-0.81621 0.0374665 2.23117 139 118 101
-0.785728 0.0383444 2.23328 140 120 93
-0.761223 0.0392108 2.25108 137 118 88
-0.730521 0.0400951 2.25321 141 120 101
-0.705698 0.0409807 2.27204 142 120 96
-0.680407 0.0418799 2.29089 136 116 92
-0.649235 0.0427776 2.29306 137 114 100
-0.623239 0.043697 2.31196 135 113 100
-0.596774 0.04463 2.3309 139 118 99
-0.565133 0.0455412 2.3331 138 118 91
-0.538227 0.0464969 2.35307 136 109 92
-0.510824 0.0474669 2.37308 145 115 107
-0.482924 0.0484513 2.39313 137 116 97
-0.450538 0.049384 2.39538 139 113 88
-0.418151 0.0503167 2.39763 139 114 94
-0.385765 0.0512494 2.39988 140 116 92
-0.353378 0.0521821 2.40213 135 108 97
-0.324154 0.0532146 2.42327 132 108 96
-0.294405 0.0542622 2.44444 136 109 90
-0.261494 0.05521 2.44673 140 114 91
-0.228583 0.0561579 2.44902 138 111 90
-0.195672 0.0571057 2.4513 133 111 98
-0.162761 0.0580535 2.45359 133 108 86
-0.131438 0.0591464 2.47488 143 116 95
-0.0982646 0.0601018 2.47718 134 108 93
-0.0650913 0.0610572 2.47949 133 112 85
-0.0327192 0.0621804 2.50085 133 113 86
0.0001491 0.0633279 2.52325 133 106 85
0.0338608 0.0642987 2.52559 137 112 90
0.0675875 0.0650692 2.50782 133 112 91
0.101023 0.0660321 2.51014 131 109 86
0.134996 0.0672114 2.53262 128 107 88
0.168707 0.0681823 2.53496 136 113 95
0.203508 0.0693854 2.55749 136 107 89
0.237496 0.0703643 2.55985 135 113 90
0.273126 0.0715913 2.58245 141 114 93
0.307389 0.0725781 2.58483 137 116 89
0.343957 0.0738421 2.60849 136 107 89
0.37851 0.0748373 2.61089 130 112 88
0.413064 0.0758324 2.61329 133 108 88
0.447618 0.0768275 2.61569 131 109 88
0.482172 0.0778226 2.61809 129 106 90
0.520478 0.0791368 2.64188 128 101 72
0.555322 0.0801403 2.6443 122 101 80
0.599038 0.0818312 2.69059 118 94 84
0.634475 0.0828518 2.69305 118 97 78
0.669912 0.0838724 2.69551 118 96 85
0.694697 0.0841542 2.65398 111 90 71
0.729541 0.0851577 2.6564 109 89 64
0.776224 0.0869341 2.7029 106 84 71
0.811661 0.0879547 2.70536 113 82 80
0.840434 0.0885623 2.68523 91 77 68
0.868915 0.0891716 2.66608 93 77 64
0.917973 0.0910164 2.71274 105 82 66
0.953411 0.092037 2.71521 105 82 68
0.973446 0.092182 2.67335 118 97 94
0.985227 0.0918985 2.6118 106 90 77
0.989124 0.0912272 2.53362 118 98 73
1.01444 0.0917655 2.51627 110 93 85
1.02435 0.0914985 2.46164 113 95 83
1.04129 0.0916347 2.42761 128 103 83
1.05021 0.0913791 2.37693 127 103 99
1.06635 0.0915227 2.34587 122 100 86
1.08162 0.0916409 2.31474 128 104 94
-1.20839 0.0540459 2.09264 139 114 109
-1.1794 0.0548808 2.09466 143 126 98
-1.15041 0.0557157 2.09667 142 122 113
-1.12993 0.0566632 2.11316 139 116 102
-1.10073 0.057504 2.11519 135 119 103
-1.08772 0.0585939 2.14623 144 125 111
-1.05811 0.0594467 2.14829 138 124 98
-1.03617 0.0604359 2.16488 149 125 113
-1.01432 0.0614465 2.18247 147 125 114
-0.984282 0.0623117 2.18456 144 123 106
-0.954242 0.0631768 2.18665 140 121 106
-0.924203 0.0640419 2.18874 149 122 111
-0.901248 0.0650844 2.2064 145 124 103
-0.870988 0.0659558 2.20851 148 126 102
-0.847371 0.0670174 2.22622 149 121 109
-0.816889 0.0678952 2.22834 143 124 110
-0.79261 0.0689758 2.2461 143 117 104
-0.774616 0.0703044 2.2815 146 126 101
-0.743445 0.0712021 2.28367 142 119 101
-0.712273 0.0720999 2.28583 144 116 104
-0.681102 0.0729976 2.288 145 119 102
-0.655346 0.0741445 2.30687 149 120 102
-0.62394 0.075049 2.30905 143 120 104
-0.59748 0.0762163 2.32797 136 114 103
-0.570828 0.0774129 2.3479 140 117 99
-0.538938 0.0783313 2.35011 137 115 94
-0.511541 0.0795493 2.3701 142 119 105
-0.479403 0.0804749 2.37233 136 113 105
-0.45126 0.0817144 2.39237 142 122 95
-0.418874 0.0826472 2.39462 134 112 88
-0.386487 0.0835799 2.39687 140 117 103
-0.357531 0.0848667 2.41797 136 118 98
-0.32805 0.0861686 2.4391 135 110 90
-0.295139 0.0871164 2.44139 139 112 91
-0.264871 0.088441 2.46258 142 114 102
-0.231698 0.0893963 2.46489 134 113 94
-0.198524 0.0903517 2.46719 132 110 96
-0.165351 0.0913071 2.4695 136 114 93
-0.132178 0.0922625 2.4718 138 113 91
-0.100336 0.0936324 2.4931 133 108 88
-0.0669005 0.0945953 2.49542 133 112 91
-0.0343144 0.0960104 2.51778 134 113 84
-0.000602783 0.0969813 2.52012 133 107 92
0.0331089 0.0979522 2.52246 121 100 83
0.0668417 0.098447 2.50471 135 118 110
0.099793 0.0984902 2.46883 140 124 101
0.132704 0.099438 2.47112 143 127 101
0.164848 0.0999109 2.45426 142 122 95
0.199555 0.101816 2.49485 128 111 85
0.235379 0.103777 2.53651 135 114 97
0.269091 0.104748 2.53886 134 113 86
0.304714 0.106251 2.56142 144 123 96
0.340889 0.10777 2.58403 134 118 92
0.375153 0.108756 2.58641 133 108 86
0.412294 0.110326 2.61009 126 104 83
0.446847 0.111322 2.61249 135 112 96
0.481401 0.112317 2.61489 126 104 80
0.519701 0.11392 2.63864 121 97 69
0.554545 0.114924 2.64106 122 98 86
0.60278 0.117862 2.70971 115 94 75
0.633685 0.118228 2.68976 109 87 73
0.659076 0.117934 2.64833 85 73 61
0.683528 0.117637 2.60783 93 79 66
0.717792 0.118624 2.61021 65 50 43
0.763607 0.120945 2.65559 73 60 44
0.804516 0.122623 2.67953 72 54 42
0.833294 0.122952 2.66043 76 60 47
0.848518 0.121912 2.59921 73 57 44
0.875901 0.122224 2.58102 81 61 63
0.902731 0.12252 2.56279 98 81 74
0.943324 0.124166 2.5857 93 76 48
0.984469 0.125828 2.60865 105 87 77
0.995714 0.124745 2.55016 117 96 79
1.01371 0.124358 2.51324 120 96 72
1.02364 0.123333 2.45868 116 95 78
1.04059 0.122987 2.4247 126 100 87
1.05701 0.122649 2.39168 127 104 73
1.07295 0.122322 2.35964 125 106 89
1.08845 0.122005 2.32857 117 97 86
-1.20904 0.0829862 2.08995 149 125 101
-1.18897 0.0841285 2.1064 139 122 106
-1.15978 0.0849693 2.10843 149 129 104
-1.13909 0.0861295 2.12491 148 131 115
-1.10969 0.0869763 2.12696 144 127 111
-1.09647 0.0884856 2.15797 139 119 110
-1.07507 0.089704 2.17551 149 123 106
-1.04503 0.0905691 2.1776 151 128 110
-1.01499 0.0914342 2.17969 149 121 100
-0.984952 0.0922994 2.18177 150 127 119
-0.962444 0.0935496 2.19939 153 127 110
-0.932184 0.0944211 2.20149 152 123 109
-0.901923 0.0952925 2.2036 143 125 101
-0.871663 0.096164 2.2057 146 128 108
-0.854699 0.0978566 2.23898 144 122 111
-0.830826 0.0991838 2.2577 135 116 102
-0.806483 0.100524 2.27644 147 123 111
-0.768952 0.100966 2.262 146 124 111
-0.74414 0.10232 2.28078 145 124 105
-0.718859 0.103688 2.29959 147 118 104
-0.687453 0.104592 2.30177 145 122 104
-0.656047 0.105497 2.30395 142 120 97
-0.62464 0.106401 2.30613 139 119 108
-0.608671 0.108855 2.36042 141 122 107
-0.571539 0.109247 2.34494 141 119 98
-0.549141 0.111247 2.38262 146 120 93
-0.516755 0.112179 2.38487 139 112 101
-0.484369 0.113112 2.38712 138 117 98
-0.456205 0.114638 2.40814 139 117 93
-0.419596 0.114978 2.39162 139 109 98
-0.390908 0.116519 2.41267 142 114 102
-0.358259 0.117459 2.41494 141 115 98
-0.328784 0.119023 2.43605 133 111 90
-0.298784 0.120602 2.4572 137 117 92
-0.265611 0.121557 2.4595 134 116 102
-0.234824 0.123158 2.4807 133 111 100
-0.201389 0.124121 2.48303 132 113 98
-0.167953 0.125084 2.48535 131 113 91
-0.136201 0.126751 2.50762 133 112 91
-0.10249 0.127722 2.50997 129 107 94
-0.068778 0.128693 2.51231 132 111 90
-0.035922 0.130392 2.53466 131 107 95
-0.00193422 0.131371 2.53702 130 102 90
0.0320535 0.132349 2.53938 124 100 90
0.066122 0.131111 2.48255 135 122 113
0.0988227 0.130623 2.4467 100 86 77
0.1305 0.130143 2.41178 144 125 110
0.161917 0.13037 2.3959 162 143 113
0.193807 0.131289 2.39811 157 142 113
0.225696 0.132207 2.40033 134 106 85
0.260518 0.134565 2.43887 109 60 45
0.294715 0.136264 2.46031 155 131 105
0.329436 0.137979 2.48178 149 127 104
0.360012 0.138145 2.46484 145 122 88
0.390064 0.138295 2.44787 143 122 101
0.42245 0.139228 2.45012 141 116 94
0.46108 0.14177 2.49093 139 123 90
0.497375 0.143531 2.51251 131 118 86
0.530548 0.144486 2.51482 112 90 69
0.563721 0.145441 2.51712 100 81 74
0.623455 0.151714 2.64267 72 59 51
0.643833 0.149968 2.58188 90 80 70
0.667936 0.149158 2.54343 86 68 54
0.70659 0.151023 2.56618 74 61 53
0.734807 0.151083 2.54807 70 61 52
0.774014 0.152965 2.57086 76 65 59
0.801678 0.153009 2.55272 76 62 59
0.835114 0.153972 2.55504 65 54 50
0.862281 0.15404 2.53787 77 61 61
0.882391 0.153189 2.50114 115 99 99
0.908246 0.153219 2.48387 73 58 53
0.933948 0.153282 2.4676 99 83 70
0.966086 0.154207 2.46983 88 68 57
1.00541 0.156017 2.49062 115 86 68
1.02293 0.155167 2.45572 110 92 78
1.04714 0.155187 2.43934 108 93 74
1.05632 0.153533 2.38881 121 98 82
1.05774 0.151128 2.32369 113 93 82
1.08778 0.151993 2.32578 120 99 82
-1.20969 0.111927 2.08726 152 130 116
-1.18963 0.113275 2.10369 143 121 110
-1.16043 0.114116 2.10572 146 129 101
-1.13123 0.114957 2.10774 138 119 102
-1.11865 0.116862 2.13868 145 123 110
-1.09714 0.118253 2.15521 143 125 103
-1.07574 0.119692 2.17273 147 125 101
-1.0457 0.120557 2.17481 138 117 100
-1.02364 0.122015 2.19238 152 132 105
-0.993379 0.122886 2.19448 146 123 91
-0.963119 0.123758 2.19658 147 126 109
-0.940174 0.125241 2.21421 141 130 98
-0.909693 0.126119 2.21633 143 120 104
-0.879212 0.126997 2.21845 148 124 100
-0.862453 0.129176 2.25268 148 121 100
-0.831516 0.130067 2.25483 141 122 105
-0.807178 0.131642 2.27355 148 125 109
-0.776007 0.13254 2.27572 145 126 109
-0.744835 0.133438 2.27788 140 124 101
-0.719559 0.13504 2.29667 143 121 107
-0.688153 0.135944 2.29886 147 124 106
-0.662173 0.137566 2.3177 113 95 75
-0.636029 0.139245 2.33755 149 128 123
-0.609388 0.140938 2.35744 134 114 90
-0.57725 0.141863 2.35967 135 116 102
-0.549864 0.143577 2.37961 138 115 99
-0.522231 0.14535 2.40057 140 114 101
-0.489582 0.14629 2.40284 139 114 94
-0.456933 0.147231 2.40511 141 116 94
-0.424284 0.148171 2.40737 136 114 93
-0.391636 0.149111 2.40964 133 111 90
-0.362429 0.150929 2.43071 138 111 94
-0.332697 0.152762 2.45182 141 119 98
-0.302441 0.15461 2.47296 129 111 91
-0.269005 0.155573 2.47528 136 115 98
-0.23557 0.156536 2.4776 130 113 87
-0.202134 0.157499 2.47993 131 111 87
-0.170665 0.159434 2.50215 135 109 96
-0.136953 0.160405 2.50449 133 116 90
-0.103242 0.161376 2.50684 126 104 81
-0.0695299 0.162346 2.50918 126 108 88
-0.03668 0.164321 2.5315 129 108 87
-0.00269226 0.1653 2.53386 122 99 85
0.0312955 0.166279 2.53623 107 91 75
0.0653821 0.164227 2.47947 118 107 87
0.0974274 0.160368 2.38851 155 137 115
0.128409 0.159461 2.35559 162 145 115
0.159815 0.160365 2.35777 164 142 121
0.190311 0.160369 2.34285 167 148 118
0.221483 0.161267 2.34502 154 136 114
0.254034 0.163079 2.36432 146 128 104
0.28544 0.163983 2.3665 151 134 106
0.320653 0.166797 2.40402 153 134 104
0.354749 0.168704 2.42442 150 129 100
0.386887 0.16963 2.42666 144 124 99
0.416321 0.169552 2.41066 151 134 106
0.445259 0.16946 2.39464 134 106 82
0.4769 0.170371 2.39684 112 59 45
0.505284 0.170314 2.38177 131 100 80
0.540182 0.172194 2.40123 127 100 73
0.571823 0.173105 2.40343 123 101 87
0.603464 0.174016 2.40563 101 87 74
0.653122 0.1792 2.48223 68 53 48
