ply
format ascii 1.0
element vertex 1230
property float x
property float y
property float z
property uchar red
property uchar green
property uchar blue
end_header
0.963432 -0.444792 2.62465 121 94 75
0.99576 -0.444111 2.62769 129 102 83
1.00628 -0.431996 2.57257 123 102 81
1.03077 -0.427736 2.55721 120 99 80
1.04012 -0.416307 2.50509 123 93 83
1.06364 -0.412287 2.49068 129 106 88
-1.12345 -0.366926 1.97403 170 157 149
-1.10511 -0.369224 1.98924 205 188 181
-1.06353 -0.363185 1.96722 202 191 171
-1.03735 -0.362633 1.96968 198 178 177
-1.0399 -0.373012 2.02131 215 195 194
-0.999009 -0.366987 1.99922 214 192 195
-0.986161 -0.371879 2.02637 204 184 177
-0.95929 -0.371313 2.0289 207 189 185
-0.932419 -0.370746 2.03143 205 188 180
-0.911618 -0.372786 2.04584 206 188 186
-0.884582 -0.372216 2.04838 206 187 180
-0.863763 -0.374461 2.06383 211 191 190
-0.830509 -0.371076 2.05347 206 187 181
-0.809332 -0.373314 2.06895 202 182 181
-0.793914 -0.378564 2.09841 205 191 182
-0.766326 -0.377983 2.10101 203 183 184
-0.74406 -0.380198 2.11659 195 178 170
-0.716294 -0.379613 2.11921 207 189 185
-0.683563 -0.376238 2.1088 200 186 177
-0.66076 -0.378442 2.12443 200 182 172
-0.637953 -0.380852 2.1411 205 185 184
-0.609993 -0.380263 2.14373 194 180 171
-0.582034 -0.379673 2.14637 191 174 166
-0.558455 -0.382067 2.16311 197 180 172
-0.530302 -0.381474 2.16576 177 159 149
-0.50215 -0.38088 2.16841 197 180 162
-0.473997 -0.380287 2.17106 185 167 155
-0.453063 -0.385628 2.20208 191 168 160
-0.421108 -0.382063 2.19056 193 179 170
-0.399209 -0.387383 2.22167 167 149 137
-0.370478 -0.386778 2.22437 190 172 162
-0.338909 -0.383221 2.21282 190 171 167
-0.315849 -0.388724 2.24508 186 168 154
-0.286911 -0.388114 2.2478 187 168 161
-0.257973 -0.387504 2.25052 165 151 148
-0.229035 -0.386894 2.25325 187 166 163
-0.202103 -0.389423 2.27134 163 147 132
-0.172959 -0.388809 2.27409 182 163 156
-0.145407 -0.391326 2.29224 153 133 124
-0.114669 -0.38758 2.27957 183 169 156
-0.0867043 -0.390088 2.29777 171 152 146
-0.0592989 -0.395705 2.33147 177 158 154
-0.0287678 -0.391964 2.31878 158 138 129
-0.000366202 -0.397767 2.35362 180 164 149
0.0288662 -0.403759 2.38957 177 147 137
0.0588051 -0.413452 2.44426 132 109 93
0.0898518 -0.409288 2.42954 134 106 94
0.120733 -0.408637 2.43245 143 113 87
0.151614 -0.407986 2.43536 145 117 95
0.182495 -0.407335 2.43826 141 115 90
0.215387 -0.413662 2.47663 146 114 99
0.246736 -0.413001 2.47958 147 116 87
0.276612 -0.408861 2.46476 138 116 95
0.307727 -0.408205 2.46769 141 113 99
0.340785 -0.411019 2.48843 143 115 101
0.369957 -0.406893 2.47354 143 118 98
0.403484 -0.409697 2.49434 143 118 98
0.432188 -0.405582 2.4794 147 114 95
0.463303 -0.404926 2.48233 141 113 99
0.497532 -0.407715 2.50319 137 117 93
0.528882 -0.407054 2.50614 142 116 99
0.563814 -0.409828 2.52706 141 110 90
0.595397 -0.409162 2.53003 132 109 93
0.626981 -0.408496 2.53301 130 106 80
0.658565 -0.407831 2.53598 131 101 75
0.685629 -0.40375 2.52089 129 117 93
0.716978 -0.403089 2.52384 125 104 75
0.753316 -0.405833 2.5449 130 113 85
0.790429 -0.408768 2.56706 122 103 86
0.822261 -0.408097 2.57006 131 104 83
0.860118 -0.411016 2.5923 129 106 88
0.892198 -0.41034 2.59532 132 103 71
0.924278 -0.409663 2.59833 130 103 92
0.963128 -0.412561 2.62067 123 96 75
0.988438 -0.408311 2.60437 140 113 96
1.00599 -0.400507 2.56867 123 101 80
1.02338 -0.39312 2.53504 125 98 81
1.04716 -0.389108 2.51964 124 102 81
1.06336 -0.381952 2.48693 132 108 108
-1.13189 -0.343336 1.98347 178 171 153
-1.11276 -0.345246 1.9977 205 191 178
-1.06378 -0.337082 1.96399 207 191 192
-1.05231 -0.341659 1.99096 200 186 173
-1.03268 -0.343558 2.00524 205 190 171
-1.01329 -0.345655 2.02053 202 189 180
-0.986414 -0.345089 2.02306 202 184 182
-0.959543 -0.344522 2.02559 206 186 187
-0.938909 -0.3464 2.03996 201 183 179
-0.911873 -0.34583 2.0425 202 188 179
-0.884836 -0.345261 2.04505 196 179 169
-0.8578 -0.344691 2.04759 197 182 179
-0.830764 -0.344121 2.05014 202 189 181
-0.821761 -0.351641 2.09242 199 180 174
-0.794173 -0.35106 2.09501 197 188 173
-0.766586 -0.350478 2.09761 201 186 179
-0.744322 -0.352515 2.11317 189 171 167
-0.716555 -0.351929 2.11578 198 183 178
-0.694135 -0.354155 2.13239 201 185 169
-0.666176 -0.353566 2.13502 192 172 161
-0.638216 -0.352976 2.13766 200 183 173
-0.610257 -0.352387 2.14029 194 175 168
-0.582297 -0.351798 2.14292 197 179 165
-0.55872 -0.353999 2.15964 198 181 171
-0.534757 -0.356193 2.17639 167 148 141
-0.510408 -0.358378 2.19319 197 181 166
-0.478066 -0.354998 2.18173 186 168 154
-0.456942 -0.35995 2.21272 185 166 159
-0.421375 -0.353803 2.18706 193 174 167
-0.39948 -0.358738 2.21813 168 146 133
-0.370748 -0.358133 2.22083 198 176 165
-0.342017 -0.357527 2.22354 190 171 165
-0.316121 -0.359872 2.24151 186 168 154
-0.289812 -0.362209 2.25952 191 174 167
-0.260667 -0.361595 2.26227 164 147 137
-0.231522 -0.36098 2.26501 187 171 156
-0.202378 -0.360366 2.26775 170 151 147
-0.173233 -0.359752 2.27049 183 166 156
-0.145683 -0.362062 2.28862 155 139 126
-0.119109 -0.367285 2.3222 183 162 161
-0.0881622 -0.363741 2.30957 179 160 146
-0.060619 -0.369136 2.34428 175 154 151
-0.0306337 -0.368504 2.3471 164 147 127
-0.000648446 -0.367872 2.34992 180 154 137
0.0277992 -0.379801 2.41992 157 140 122
0.0585122 -0.382431 2.44042 123 105 91
0.0895611 -0.378499 2.42574 136 116 92
0.120442 -0.377848 2.42864 143 117 92
0.151323 -0.377197 2.43155 143 116 97
0.182973 -0.379807 2.45214 147 120 99
0.216095 -0.385662 2.49047 143 116 97
0.246441 -0.381746 2.47572 143 111 96
0.277791 -0.381085 2.47867 143 114 106
0.30914 -0.380424 2.48162 142 113 97
0.34049 -0.379763 2.48457 143 116 97
0.371839 -0.379103 2.48752 139 111 99
0.403189 -0.378442 2.49047 141 111 100
0.434538 -0.377781 2.49342 132 109 78
0.465888 -0.37712 2.49637 134 108 81
0.500349 -0.379671 2.51722 136 111 89
0.531933 -0.379005 2.52019 139 113 88
0.563516 -0.378339 2.52317 138 113 93
0.5951 -0.377673 2.52614 127 110 80
0.626684 -0.377007 2.52911 131 105 80
0.658267 -0.376342 2.53208 130 109 82
0.689851 -0.375676 2.53506 137 106 86
0.721435 -0.37501 2.53803 128 103 81
0.758298 -0.377703 2.56014 130 107 76
0.795657 -0.380385 2.5823 131 114 88
0.827737 -0.379708 2.58532 125 97 83
0.86584 -0.382375 2.60755 127 106 85
0.891896 -0.378356 2.59136 127 106 79
0.930495 -0.381012 2.61364 130 104 91
0.969967 -0.383842 2.63703 125 95 87
0.988136 -0.376327 2.60042 128 100 96
1.00569 -0.369018 2.56478 131 106 75
1.02308 -0.362098 2.5312 125 107 85
1.03954 -0.355197 2.49753 132 104 82
1.05595 -0.348683 2.46593 129 108 79
-1.13214 -0.316889 1.9802 196 177 171
-1.0976 -0.313834 1.97001 192 180 180
-1.07909 -0.315771 1.98519 201 184 177
-1.05256 -0.315212 1.98769 197 184 178
-1.04041 -0.319431 2.01469 203 184 186
-1.01354 -0.318865 2.01722 205 188 178
-0.993236 -0.320585 2.03154 201 186 183
-0.9662 -0.320015 2.03408 195 176 170
-0.939164 -0.319445 2.03662 196 188 177
-0.912127 -0.318875 2.03917 202 184 182
-0.897891 -0.323229 2.0674 184 168 145
-0.870496 -0.322652 2.06997 203 182 177
-0.849608 -0.324718 2.08642 210 191 184
-0.822021 -0.324136 2.08901 182 165 158
-0.800116 -0.326002 2.10452 203 185 175
-0.778277 -0.328048 2.12105 208 188 177
-0.744583 -0.324831 2.10975 184 162 164
-0.722358 -0.326869 2.12631 202 187 180
-0.68905 -0.32366 2.11497 197 183 174
-0.666439 -0.32569 2.13158 185 168 160
-0.643442 -0.327711 2.14822 200 180 179
-0.61052 -0.324511 2.13684 197 179 177
-0.587137 -0.326525 2.15352 197 179 169
-0.563369 -0.32853 2.17023 205 186 180
-0.539215 -0.330527 2.18698 162 142 143
-0.514675 -0.332516 2.20377 196 177 171
-0.485944 -0.33191 2.20647 188 173 166
-0.457213 -0.331304 2.20918 193 169 169
-0.428481 -0.330699 2.21188 189 173 158
-0.39975 -0.330093 2.21459 169 146 140
-0.371019 -0.329487 2.21729 183 162 161
-0.345331 -0.331631 2.23522 188 171 161
-0.319231 -0.333766 2.25319 178 161 143
-0.290086 -0.333152 2.25593 185 166 162
-0.263365 -0.335274 2.27396 171 147 137
-0.231797 -0.331923 2.26142 184 167 160
-0.204662 -0.334036 2.27948 168 147 142
-0.177115 -0.336141 2.29758 182 160 146
-0.14596 -0.332799 2.28501 150 133 126
-0.119389 -0.337609 2.31853 186 167 161
-0.089624 -0.336982 2.32133 167 148 144
-0.0609012 -0.339241 2.34058 174 154 145
-0.0317375 -0.34149 2.35987 159 141 119
-0.00153174 -0.340853 2.36271 178 161 143
0.0275085 -0.349013 2.41612 158 133 129
0.0582193 -0.351409 2.43659 121 101 90
0.0892704 -0.347711 2.42193 133 107 92
0.12045 -0.350097 2.44244 144 117 96
0.151565 -0.349441 2.44537 141 116 96
0.18268 -0.348785 2.4483 142 113 99
0.214797 -0.351151 2.4689 145 118 101
0.246146 -0.35049 2.47185 141 115 98
0.278965 -0.352842 2.49252 142 117 97
0.310549 -0.352176 2.49549 140 108 85
0.342133 -0.35151 2.49847 147 114 95
0.373717 -0.350845 2.50144 143 117 100
0.407849 -0.353347 2.52326 135 115 90
0.436884 -0.349513 2.50738 140 115 93
0.468468 -0.348847 2.51036 132 110 86
0.503344 -0.351334 2.53225 138 108 98
0.531635 -0.347516 2.5163 137 117 84
0.567008 -0.349992 2.53824 142 113 95
0.598839 -0.349321 2.54124 137 106 85
0.630671 -0.34865 2.54423 131 105 90
0.662503 -0.347979 2.54723 129 104 82
0.694335 -0.347308 2.55023 128 105 91
0.731195 -0.349754 2.57231 140 113 94
0.763275 -0.349077 2.57533 135 108 89
0.80088 -0.351507 2.59748 127 105 84
0.833207 -0.350825 2.60052 131 106 84
0.865535 -0.350144 2.60357 133 108 77
0.897863 -0.349463 2.60661 134 107 88
0.930191 -0.348781 2.60965 125 101 75
0.96966 -0.35135 2.63301 125 104 83
0.987834 -0.344344 2.59646 123 96 87
1.01265 -0.340598 2.58018 126 95 90
1.02279 -0.331076 2.52736 126 104 91
1.03925 -0.324642 2.49375 126 105 84
1.05567 -0.318568 2.46221 126 108 104
-1.13995 -0.292585 1.98861 192 176 161
-1.11326 -0.292023 1.99112 201 185 185
-1.07934 -0.289324 1.98192 200 180 179
-1.05988 -0.290897 1.99614 190 179 175
-1.04066 -0.292641 2.01137 193 174 167
-1.02053 -0.2942 2.02566 203 188 181
-0.993491 -0.29363 2.0282 200 187 181
-0.973393 -0.295355 2.04352 171 148 154
-0.946178 -0.294781 2.04608 201 183 179
-0.918963 -0.294207 2.04864 199 187 171
-0.891747 -0.293633 2.0512 173 159 146
-0.877455 -0.297795 2.08042 201 181 180
-0.849868 -0.297213 2.08302 202 180 192
-0.82228 -0.296631 2.08561 177 159 145
-0.8065 -0.300761 2.11497 198 174 172
-0.778541 -0.300172 2.1176 198 183 176
-0.750581 -0.299582 2.12024 175 155 154
-0.722621 -0.298993 2.12287 199 183 168
-0.700012 -0.30083 2.13945 199 183 170
-0.677018 -0.302659 2.15607 178 160 148
-0.643707 -0.299643 2.14475 200 182 170
-0.620327 -0.301464 2.1614 196 180 167
-0.596561 -0.303277 2.17809 195 174 173
-0.572408 -0.305082 2.19482 190 172 160
-0.539484 -0.302074 2.18346 161 145 132
-0.514946 -0.303871 2.20023 188 174 161
-0.486214 -0.303265 2.20293 188 169 162
-0.461356 -0.30522 2.22076 188 165 159
-0.432418 -0.30461 2.22348 187 171 156
-0.40348 -0.304 2.2262 161 143 131
-0.374542 -0.30339 2.22893 180 166 155
-0.345604 -0.30278 2.23165 186 168 156
-0.325183 -0.309787 2.28003 183 162 157
-0.29036 -0.304095 2.25234 179 163 150
-0.263641 -0.30601 2.27034 162 140 126
-0.236509 -0.307918 2.28838 183 169 158
-0.206951 -0.307295 2.29116 167 147 136
-0.177393 -0.306671 2.29394 177 160 150
-0.149434 -0.308561 2.31206 150 131 124
-0.119669 -0.307934 2.31486 177 158 151
-0.0899042 -0.307306 2.31766 169 150 136
-0.0611835 -0.309345 2.33688 176 156 149
-0.0320218 -0.311375 2.35615 168 146 125
-0.00181606 -0.310738 2.35899 186 158 146
0.0268113 -0.321043 2.42982 148 136 112
0.0577542 -0.3232 2.45029 109 89 80
0.0891036 -0.322539 2.45324 138 111 90
0.120157 -0.319075 2.43861 141 113 91
0.151803 -0.321218 2.45914 143 115 94
0.182387 -0.317763 2.44446 146 118 94
0.216558 -0.325637 2.50137 139 110 96
0.24839 -0.324966 2.50436 144 113 93
0.280222 -0.324295 2.50736 136 110 83
0.310252 -0.320687 2.4916 140 115 95
0.343885 -0.322953 2.51335 146 118 106
0.373419 -0.319356 2.49754 139 111 97
0.407549 -0.321611 2.51934 138 114 90
0.439381 -0.32094 2.52234 139 113 96
0.471213 -0.320269 2.52533 140 114 89
0.506334 -0.322504 2.54722 140 112 90
0.538414 -0.321827 2.55024 142 115 96
0.57428 -0.324046 2.5722 125 98 87
0.602574 -0.320475 2.55628 142 112 86
0.630371 -0.316914 2.54031 137 109 97
0.666734 -0.319122 2.56232 136 109 88
0.698813 -0.318446 2.56534 133 107 92
0.73592 -0.320639 2.58741 126 101 79
0.768247 -0.319957 2.59045 128 104 76
0.806405 -0.322293 2.61366 131 106 84
0.832903 -0.318595 2.59654 131 107 83
0.865231 -0.317913 2.59958 124 101 67
0.904174 -0.320232 2.62286 125 97 75
0.936763 -0.319545 2.62593 123 96 69
0.969353 -0.318858 2.629 128 107 80
0.987532 -0.31236 2.59251 124 106 86
1.00509 -0.30604 2.55699 121 101 76
1.01541 -0.297394 2.50531 133 112 85
1.03897 -0.294088 2.48997 125 95 95
1.0625 -0.290947 2.47567 128 104 76
-1.1402 -0.265973 1.98532 193 175 171
-1.11351 -0.265411 1.98783 192 175 167
-1.09466 -0.266983 2.003 198 181 171
-1.06779 -0.266417 2.00553 192 173 169
-1.04782 -0.267814 2.01978 187 156 164
-1.02078 -0.267244 2.02232 199 180 176
-1.00087 -0.268794 2.0376 202 184 182
-0.966709 -0.266104 2.02741 171 154 147
-0.946434 -0.267647 2.04272 203 186 179
-0.925801 -0.269182 2.05806 195 182 176
-0.905303 -0.270871 2.07442 163 145 141
-0.883939 -0.272391 2.08983 194 181 173
-0.850127 -0.269708 2.07961 194 181 172
-0.828406 -0.27122 2.09506 176 159 152
-0.806763 -0.272886 2.11153 196 182 171
-0.778804 -0.272296 2.11416 198 181 171
-0.750844 -0.271707 2.11679 177 158 152
-0.72843 -0.273356 2.13333 199 181 167
-0.700277 -0.272762 2.13598 200 186 175
-0.677285 -0.274399 2.15257 164 144 137
-0.648939 -0.273801 2.15524 203 178 181
-0.620594 -0.273204 2.15791 195 182 166
-0.596829 -0.274824 2.17457 186 172 161
-0.572679 -0.276437 2.19128 190 172 172
-0.543947 -0.275831 2.19398 165 146 140
-0.519504 -0.277589 2.21174 194 173 168
-0.490566 -0.276979 2.21447 192 174 172
-0.461628 -0.276369 2.21719 182 163 156
-0.43269 -0.275759 2.21991 187 171 158
-0.407213 -0.277495 2.23777 164 142 131
-0.374814 -0.274539 2.22536 189 171 159
-0.345876 -0.273929 2.22808 185 169 154
-0.325461 -0.280317 2.27639 178 160 140
-0.295903 -0.279694 2.27917 181 163 151
-0.266345 -0.279071 2.28195 161 141 134
-0.236787 -0.278448 2.28473 185 166 160
-0.209243 -0.280141 2.30279 176 150 149
-0.179479 -0.279513 2.30559 179 157 146
-0.151422 -0.281346 2.32472 154 134 127
-0.121436 -0.280714 2.32754 174 160 149
-0.091451 -0.280082 2.33036 169 146 138
-0.0625119 -0.281896 2.34958 171 154 134
-0.0323061 -0.28126 2.35242 168 152 136
-0.00270559 -0.28306 2.3717 174 153 132
0.0261096 -0.292605 2.44347 151 123 109
0.0570998 -0.297256 2.48246 106 83 77
0.0888683 -0.293859 2.4669 133 105 81
0.120452 -0.293193 2.46987 146 122 88
0.152036 -0.292527 2.47284 141 116 94
0.182857 -0.289301 2.45822 144 120 86
0.216259 -0.293901 2.49744 141 113 102
0.246787 -0.29053 2.48176 145 116 100
0.281474 -0.295254 2.52213 141 115 98
0.313554 -0.294577 2.52515 141 110 89
0.345633 -0.293901 2.52817 140 110 86
0.375418 -0.290546 2.51242 141 114 87
0.409793 -0.292549 2.53421 140 113 94
0.439081 -0.289204 2.51841 137 109 98
0.473953 -0.291196 2.54025 138 108 84
0.50932 -0.293178 2.56213 134 108 95
0.541648 -0.292497 2.56517 130 107 91
0.573976 -0.291815 2.56821 134 118 95
0.606304 -0.291134 2.57125 134 102 77
0.638632 -0.290452 2.5743 123 106 78
0.67096 -0.289771 2.57734 134 111 80
0.703287 -0.289089 2.58038 133 106 99
0.735615 -0.288408 2.58342 131 110 83
0.767943 -0.287727 2.58647 129 103 86
0.806098 -0.289801 2.60964 129 106 88
0.838688 -0.289114 2.61271 121 95 70
0.871277 -0.288427 2.61578 122 101 70
0.903867 -0.28774 2.61884 133 109 97
0.943331 -0.289788 2.64214 132 101 81
0.976182 -0.289095 2.64523 130 107 91
0.980221 -0.277797 2.56934 125 99 86
1.0048 -0.274551 2.5531 125 108 80
1.01512 -0.266605 2.5015 125 107 85
1.03868 -0.263533 2.4862 127 105 94
1.0551 -0.258338 2.45476 126 107 75
-1.14046 -0.239362 1.98203 188 170 166
-1.11376 -0.238799 1.98454 172 159 153
-1.09491 -0.240193 1.99969 198 180 170
-1.06804 -0.239626 2.00222 199 179 181
-1.04807 -0.240859 2.01645 161 150 132
-1.03564 -0.244179 2.04437 199 181 181
-1.00824 -0.243602 2.04695 204 179 183
-0.973906 -0.241087 2.0368 168 151 144
-0.960737 -0.24453 2.06583 193 181 167
-0.93315 -0.243948 2.06842 195 181 178
-0.905562 -0.243367 2.07102 171 154 147
-0.877975 -0.242785 2.07362 195 178 170
-0.856434 -0.244122 2.08902 197 178 171
-0.828667 -0.243537 2.09163 185 167 163
-0.813153 -0.247068 2.12191 200 182 182
-0.785 -0.246474 2.12456 193 176 168
-0.756848 -0.245881 2.12721 170 157 148
-0.728695 -0.245288 2.12986 188 173 168
-0.711251 -0.248778 2.16031 189 178 174
-0.677551 -0.246139 2.14908 164 152 138
-0.654175 -0.247575 2.16568 193 176 168
-0.620861 -0.244944 2.15441 187 173 160
-0.597098 -0.246372 2.17106 192 169 163
-0.577652 -0.249958 2.20273 193 174 167
-0.548714 -0.249348 2.20545 160 140 129
-0.519776 -0.248738 2.20817 190 168 154
-0.490838 -0.248128 2.2109 191 170 167
-0.469654 -0.251815 2.24376 186 163 157
-0.440302 -0.251196 2.24653 184 165 159
-0.407488 -0.248438 2.23418 163 140 134
-0.378343 -0.247823 2.23692 187 167 158
-0.352248 -0.24934 2.25481 183 166 156
-0.328583 -0.252975 2.28791 175 158 140
-0.298818 -0.252347 2.29071 179 160 154
-0.269053 -0.25172 2.29351 158 138 139
-0.239288 -0.251092 2.29631 182 163 149
-0.209524 -0.250465 2.29912 167 151 138
-0.179759 -0.249838 2.30192 171 159 147
-0.151704 -0.251451 2.32102 158 138 131
-0.121718 -0.250819 2.32384 171 154 138
-0.0917332 -0.250187 2.32667 172 149 133
-0.0638444 -0.254008 2.36222 179 152 141
-0.0334182 -0.253367 2.36508 166 147 132
-0.00299198 -0.252725 2.36795 171 153 143
0.0254035 -0.263701 2.45706 143 116 107
0.0568002 -0.265519 2.47854 100 80 73
0.088571 -0.26237 2.463 131 103 91
0.120464 -0.264177 2.48453 138 116 95
0.152296 -0.263506 2.48752 142 117 97
0.183322 -0.260372 2.47192 146 124 85
0.217012 -0.264622 2.51214 139 113 96
0.249092 -0.263946 2.51516 144 113 92
0.281172 -0.26327 2.51818 142 116 93
0.313252 -0.262594 2.5212 141 112 96
0.345331 -0.261918 2.52421 140 113 92
0.377411 -0.261241 2.52723 136 119 89
0.409491 -0.260565 2.53025 137 105 82
0.441571 -0.259889 2.53327 133 111 87
0.473651 -0.259213 2.53629 137 109 87
0.512484 -0.263492 2.57802 136 110 97
0.541344 -0.260266 2.56118 128 102 85
0.573672 -0.259584 2.56423 138 109 95
0.605999 -0.258903 2.56727 127 113 78
0.642843 -0.260744 2.59029 134 106 84
0.675432 -0.260057 2.59336 131 107 83
0.702983 -0.256859 2.5764 133 111 90
0.735311 -0.256177 2.57944 131 108 92
0.773201 -0.257996 2.60256 132 103 87
0.805791 -0.257309 2.60562 131 105 80
0.844467 -0.259112 2.62882 131 108 74
0.87097 -0.255935 2.61176 125 103 82
0.91017 -0.257727 2.635 131 104 83
0.943021 -0.257035 2.63809 126 98 76
0.96874 -0.253875 2.62096 133 105 101
0.986928 -0.248393 2.5846 126 100 87
1.0045 -0.243062 2.5492 132 106 89
1.02191 -0.23801 2.51585 127 103 91
1.03839 -0.232978 2.48242 127 100 91
1.05482 -0.228222 2.45103 116 99 73
-1.14071 -0.21275 1.97874 193 176 168
-1.12203 -0.213969 1.99385 168 148 147
-1.09516 -0.213402 1.99638 195 175 166
-1.07536 -0.214474 2.01057 194 179 174
-1.05581 -0.215674 2.02576 172 158 157
-1.02859 -0.2151 2.02833 196 178 174
-1.0085 -0.216289 2.04357 186 174 162
-0.988585 -0.217606 2.05983 184 171 162
-0.960997 -0.217025 2.06243 193 176 166
-0.933409 -0.216443 2.06502 192 180 168
-0.905822 -0.215862 2.06762 182 164 154
-0.884462 -0.217024 2.08299 194 175 171
-0.856695 -0.216439 2.0856 199 182 175
-0.828929 -0.215853 2.08821 183 167 152
-0.819545 -0.220866 2.13224 197 179 169
-0.785265 -0.218406 2.12109 198 177 176
-0.762854 -0.219671 2.13758 172 155 147
-0.740058 -0.220927 2.15411 191 173 161
-0.706164 -0.218476 2.14291 189 176 167
-0.682981 -0.219724 2.15948 169 153 138
-0.659413 -0.220963 2.17608 191 174 167
-0.625905 -0.218521 2.16485 187 170 162
-0.601951 -0.219752 2.18149 182 159 151
-0.577925 -0.221106 2.19916 193 176 169
-0.548987 -0.220496 2.20188 168 147 142
-0.520049 -0.219886 2.20461 190 171 165
-0.495196 -0.221223 2.22236 186 168 156
-0.46993 -0.222551 2.24014 180 160 149
-0.440579 -0.221933 2.24291 185 168 160
-0.414692 -0.223248 2.26075 151 137 124
-0.385134 -0.222625 2.26353 177 163 150
-0.355576 -0.222002 2.26632 188 169 162
-0.328863 -0.223299 2.28424 174 157 147
-0.301912 -0.224716 2.30322 180 163 155
-0.271927 -0.224084 2.30604 155 138 131
-0.241942 -0.223452 2.30886 182 164 152
-0.211957 -0.22282 2.31168 167 144 136
-0.181971 -0.222188 2.3145 177 157 148
-0.153698 -0.223576 2.3336 156 138 124
-0.123492 -0.22294 2.33644 163 145 135
-0.0932862 -0.222303 2.33929 165 148 130
-0.0651811 -0.22568 2.37481 173 152 151
-0.0345344 -0.225034 2.37769 161 143 133
-0.00388774 -0.224388 2.38058 171 154 138
0.0246688 -0.234454 2.47162 139 115 105
0.0565005 -0.233783 2.47461 87 70 52
0.0882737 -0.23088 2.45911 145 117 95
0.120164 -0.232441 2.4806 139 111 90
0.151441 -0.229549 2.46505 151 122 92
0.183828 -0.231099 2.4866 142 115 96
0.21671 -0.232639 2.50818 140 112 100
0.250089 -0.234168 2.52982 143 116 95
0.28087 -0.231286 2.51422 144 118 93
0.314745 -0.232805 2.5359 143 118 98
0.347072 -0.232124 2.53894 137 111 88
0.3794 -0.231442 2.54199 135 114 93
0.411728 -0.230761 2.54503 139 111 89
0.444056 -0.230079 2.54807 134 112 89
0.476384 -0.229398 2.55111 139 112 91
0.512177 -0.231 2.574 138 113 93
0.544767 -0.230313 2.57707 131 105 90
0.577357 -0.229626 2.58014 131 109 88
0.609946 -0.228939 2.5832 131 105 78
0.642536 -0.228252 2.58627 127 104 86
0.675126 -0.227565 2.58934 125 99 76
0.712752 -0.229129 2.6124 132 105 86
0.740305 -0.226191 2.59547 123 109 82
0.772895 -0.225504 2.59854 129 109 84
0.811306 -0.227052 2.62167 117 99 75
0.844158 -0.226359 2.62477 127 104 72
0.877009 -0.225667 2.62786 127 107 74
0.909861 -0.224974 2.63095 122 101 74
0.942712 -0.224282 2.63404 123 104 72
0.968433 -0.221383 2.61694 119 100 85
0.979622 -0.214324 2.56149 124 104 79
1.0042 -0.211573 2.54531 126 106 71
1.01454 -0.205029 2.49389 123 102 85
1.0381 -0.202423 2.47864 123 97 80
1.04742 -0.196272 2.4302 126 99 90
-1.14916 -0.187745 1.98801 186 174 160
-1.12229 -0.187179 1.99054 165 153 139
-1.10265 -0.188088 2.00469 192 179 171
-1.06854 -0.186046 1.99559 189 171 171
-1.05606 -0.18854 2.02241 183 164 158
-1.04402 -0.191265 2.05124 201 180 179
-1.01643 -0.190683 2.05383 195 178 171
-0.99579 -0.191682 2.06911 183 168 161
-0.968023 -0.191097 2.07172 194 177 167
-0.940257 -0.190511 2.07434 187 177 167
-0.91249 -0.189926 2.07695 186 165 162
-0.891432 -0.191026 2.09329 190 170 169
-0.863472 -0.190437 2.09592 194 179 174
-0.841835 -0.191525 2.11232 182 171 167
-0.819812 -0.192605 2.12875 192 175 167
-0.797404 -0.193677 2.14522 193 174 168
-0.768865 -0.193076 2.1479 183 166 156
-0.740327 -0.192474 2.15059 195 177 167
-0.711788 -0.191872 2.15327 192 175 168
-0.688415 -0.192924 2.16983 172 154 140
-0.659684 -0.192318 2.17254 188 166 152
-0.630953 -0.191713 2.17524 187 168 164
-0.607135 -0.192865 2.19287 180 159 154
-0.582904 -0.194009 2.21053 185 166 160
-0.55376 -0.193395 2.21328 165 152 144
-0.524615 -0.19278 2.21602 183 169 160
-0.503645 -0.195648 2.24876 186 172 161
-0.474087 -0.195024 2.25154 182 166 150
-0.444528 -0.194401 2.25433 181 164 157
-0.41497 -0.193778 2.25711 158 140 136
-0.385412 -0.193155 2.25989 180 160 151
-0.355854 -0.192532 2.26267 183 165 153
-0.33218 -0.195453 2.2967 175 157 143
-0.302195 -0.194821 2.29952 180 157 151
-0.272209 -0.194189 2.30234 157 137 130
-0.242224 -0.193556 2.30516 178 162 149
-0.212239 -0.192924 2.30798 166 144 131
-0.184188 -0.194098 2.32703 179 159 150
-0.155696 -0.195262 2.34613 160 142 132
-0.12527 -0.194621 2.34899 172 154 140
-0.0961163 -0.195771 2.36814 168 151 135
-0.0654696 -0.195125 2.37103 176 157 142
-0.0357068 -0.196373 2.39127 174 152 138
-0.00482585 -0.195722 2.39417 174 157 141
0.0243691 -0.202718 2.46769 134 113 96
0.0560091 -0.204036 2.48913 89 72 56
0.0880327 -0.201376 2.47368 136 111 89
0.119864 -0.200705 2.47668 146 123 89
0.152249 -0.202008 2.49819 145 118 101
0.183528 -0.199363 2.48267 145 116 98
0.217457 -0.202619 2.52279 143 115 94
0.249784 -0.201937 2.52583 139 117 94
0.282112 -0.201256 2.52887 143 118 96
0.31444 -0.200574 2.53192 138 111 92
0.346768 -0.199893 2.53496 139 113 96
0.379096 -0.199211 2.538 139 108 87
0.411424 -0.19853 2.54104 140 114 91
0.443752 -0.197848 2.54409 132 110 86
0.47608 -0.197167 2.54713 136 111 80
0.515333 -0.200531 2.5898 132 105 88
0.54446 -0.197821 2.57305 141 115 90
0.581037 -0.199146 2.59598 138 109 95
0.613888 -0.198454 2.59907 130 106 82
0.65125 -0.199762 2.62208 122 101 70
0.679591 -0.197069 2.60526 130 108 87
0.712442 -0.196376 2.60835 124 105 91
0.739998 -0.1937 2.59145 124 102 78
0.778145 -0.194991 2.61453 131 103 82
0.816816 -0.196272 2.63766 122 99 81
0.84993 -0.195574 2.64077 125 97 83
0.8767 -0.192914 2.62381 123 97 70
0.916156 -0.194178 2.64701 118 95 81
0.942403 -0.191529 2.62999 123 97 80
0.968126 -0.188891 2.61292 125 102 86
0.979322 -0.182588 2.55756 125 103 90
1.0039 -0.180084 2.54142 123 103 78
1.01425 -0.17424 2.49008 124 108 75
1.03781 -0.171868 2.47486 120 104 70
1.04714 -0.166377 2.42651 127 107 82
-1.15698 -0.162273 1.99627 187 170 162
-1.13797 -0.163127 2.01137 178 159 153
-1.11075 -0.162554 2.01393 189 170 164
-1.08354 -0.16198 2.01649 188 174 163
-1.05632 -0.161406 2.01905 183 165 161
-1.04428 -0.16376 2.04783 192 172 173
-1.02382 -0.164584 2.06307 192 175 167
-0.996051 -0.163999 2.06569 184 170 161
-0.968285 -0.163413 2.0683 185 166 160
-0.940518 -0.162828 2.07091 193 176 169
-0.912751 -0.162243 2.07352 189 174 169
-0.905115 -0.166137 2.11725 196 179 171
-0.870253 -0.164051 2.1062 200 175 178
-0.8421 -0.163457 2.10885 195 177 175
-0.826211 -0.165826 2.13901 186 174 160
-0.797672 -0.165224 2.1417 190 174 161
-0.769134 -0.164623 2.14438 188 174 165
-0.746148 -0.16549 2.16088 189 168 163
-0.717417 -0.164885 2.16359 190 171 167
-0.688686 -0.164279 2.16629 175 161 148
-0.665284 -0.165234 2.18385 191 174 164
-0.631223 -0.163068 2.1717 185 166 160
-0.607408 -0.164014 2.1893 173 159 150
-0.587888 -0.1665 2.22186 181 167 156
-0.558537 -0.165881 2.22462 174 155 149
-0.533481 -0.166801 2.24234 185 167 157
-0.499834 -0.164643 2.23014 184 168 153
-0.478247 -0.167085 2.2629 178 155 149
-0.444807 -0.164932 2.25068 181 165 150
-0.415249 -0.164309 2.25346 158 142 129
-0.388953 -0.165203 2.2713 177 159 149
-0.359188 -0.164576 2.2741 178 161 154
-0.33854 -0.168775 2.32519 174 156 144
-0.305295 -0.16653 2.31194 180 163 155
-0.272492 -0.164293 2.29864 160 141 134
-0.244884 -0.165256 2.31762 176 161 142
-0.216835 -0.16621 2.33665 168 149 134
-0.188345 -0.167154 2.35571 173 154 147
-0.157698 -0.166508 2.3586 159 137 126
-0.127051 -0.165862 2.36148 170 153 135
-0.0964048 -0.165216 2.36437 166 146 137
-0.0668784 -0.166236 2.38455 174 154 145
-0.0368836 -0.167245 2.40478 170 148 134
-0.00511652 -0.164934 2.39037 175 156 139
0.0236273 -0.172729 2.48216 140 117 111
0.0557072 -0.172053 2.48518 90 69 52
0.0877331 -0.169639 2.46976 136 104 93
0.119867 -0.1707 2.49121 140 111 97
0.151397 -0.168297 2.47575 148 122 99
0.184026 -0.169348 2.49725 137 109 87
0.218257 -0.172199 2.53836 144 118 93
0.250846 -0.171512 2.54143 142 117 95
0.281808 -0.169025 2.52489 140 114 91
0.316026 -0.170138 2.54756 140 115 84
0.346464 -0.167662 2.53097 138 112 89
0.381205 -0.168764 2.5537 141 113 91
0.413795 -0.168077 2.55676 136 111 91
0.446384 -0.16739 2.55983 133 108 86
0.478974 -0.166703 2.5629 139 118 87
0.515024 -0.167778 2.58575 131 107 79
0.544153 -0.165329 2.56903 132 111 92
0.584711 -0.168144 2.61176 130 106 78
0.617825 -0.167446 2.61488 136 108 84
0.650938 -0.166748 2.61799 137 104 85
0.684051 -0.16605 2.62111 123 96 77
0.717165 -0.165352 2.62423 125 103 80
0.744985 -0.162931 2.60739 127 100 81
0.783391 -0.163956 2.63046 127 103 79
0.816505 -0.163258 2.63358 131 106 86
0.855697 -0.164266 2.65672 128 102 77
0.889072 -0.163563 2.65986 122 94 82
0.922447 -0.162859 2.663 125 98 89
0.955822 -0.162156 2.66614 118 96 73
0.967819 -0.156399 2.6089 126 105 88
0.986022 -0.152442 2.57273 127 102 80
1.00361 -0.148595 2.53752 119 100 86
1.01396 -0.143452 2.48627 118 99 66
1.03064 -0.139914 2.45405 126 99 90
1.04686 -0.136482 2.42281 131 110 93
-1.15724 -0.135318 1.99293 182 167 162
-1.1302 -0.134748 1.99548 176 161 156
-1.11101 -0.13542 2.01058 190 168 170
-1.09146 -0.136085 2.02571 193 170 176
-1.06406 -0.135507 2.02828 185 168 160
-1.05185 -0.137486 2.05704 184 167 157
-1.02408 -0.1369 2.05965 190 176 163
-1.0038 -0.137632 2.07587 184 166 154
-0.983128 -0.138356 2.09213 192 173 167
-0.954975 -0.137763 2.09478 189 172 164
-0.919918 -0.135864 2.08376 183 168 161
-0.905382 -0.137877 2.11376 186 165 162
-0.877037 -0.137279 2.11642 196 177 170
-0.848691 -0.136682 2.11909 184 167 160
-0.826479 -0.137373 2.13549 191 169 156
-0.797941 -0.136772 2.13818 186 172 159
-0.769402 -0.13617 2.14087 189 169 158
-0.746419 -0.136845 2.15734 180 167 151
-0.717687 -0.136239 2.16004 190 171 167
-0.694494 -0.136993 2.17756 180 161 154
-0.670887 -0.137738 2.19512 181 172 157
-0.641743 -0.137123 2.19786 186 169 161
-0.612598 -0.136509 2.2006 164 144 137
-0.592875 -0.138578 2.23313 181 163 153
-0.563317 -0.137955 2.23591 175 158 150
-0.538057 -0.138665 2.25362 180 161 154
-0.504201 -0.136709 2.24147 177 163 152
-0.478527 -0.13741 2.25923 170 151 144
-0.448763 -0.136782 2.26203 184 161 155
-0.418998 -0.136155 2.26483 162 143 129
-0.389233 -0.135528 2.26763 180 160 151
-0.359468 -0.1349 2.27043 175 156 152
-0.335785 -0.137051 2.30537 174 156 142
-0.3084 -0.137799 2.32431 177 158 151
-0.275374 -0.135778 2.31106 154 134 127
-0.247547 -0.136516 2.33003 178 158 149
-0.21928 -0.137246 2.34905 170 146 134
-0.186695 -0.135234 2.33576 176 156 149
-0.157987 -0.135954 2.35482 155 133 119
-0.12734 -0.135308 2.3577 165 147 125
-0.0980501 -0.136098 2.37784 166 146 137
-0.0682917 -0.136879 2.39802 169 150 135
-0.0371765 -0.136223 2.40095 170 148 134
-0.00606125 -0.135567 2.40388 174 152 138
0.0224117 -0.143829 2.51594 137 115 94
0.0554052 -0.140069 2.48122 92 69 61
0.087485 -0.139393 2.48424 140 116 90
0.119565 -0.138717 2.48726 142 116 89
0.151645 -0.13804 2.49028 143 115 94
0.18452 -0.138838 2.51177 143 115 93
0.21795 -0.139707 2.53434 141 115 90
0.250539 -0.13902 2.53741 138 111 90
0.283129 -0.138333 2.54048 140 109 91
0.315719 -0.137646 2.54355 140 110 100
0.348309 -0.136959 2.54661 143 116 97
0.380898 -0.136272 2.54968 141 114 93
0.413488 -0.135585 2.55275 138 109 91
0.449012 -0.13641 2.57551 136 112 84
0.481864 -0.135718 2.5786 136 112 88
0.521631 -0.138027 2.62119 127 100 91
0.551286 -0.135828 2.60456 133 108 78
0.5844 -0.13513 2.60768 132 105 84
0.621757 -0.135916 2.63062 131 106 86
0.650626 -0.133734 2.61391 129 101 89
0.68374 -0.133036 2.61703 130 106 78
0.721882 -0.133806 2.64004 126 101 81
0.755257 -0.133102 2.64318 131 99 84
0.78308 -0.130942 2.62638 132 101 98
0.828128 -0.133222 2.67049 121 95 70
0.861779 -0.132513 2.67365 125 104 87
0.895429 -0.131804 2.67682 119 97 83
0.92908 -0.131094 2.67999 123 101 77
0.962731 -0.130385 2.68315 117 95 81
0.974636 -0.12533 2.62498 129 99 89
0.98572 -0.120458 2.56877 122 96 79
1.00331 -0.117106 2.53363 121 99 88
1.02074 -0.113923 2.50051 123 93 91
1.03723 -0.110759 2.4673 124 95 77
1.05368 -0.107762 2.43614 121 94 85
-1.1657 -0.109433 2.0021 180 170 158
-1.13848 -0.10886 2.00466 177 160 152
-1.11911 -0.109349 2.01975 184 171 162
-1.09997 -0.109913 2.03584 181 166 163
-1.07239 -0.109332 2.03844 182 165 157
-1.05211 -0.109802 2.05361 185 162 156
-1.03202 -0.110346 2.06979 181 171 161
-1.01155 -0.110882 2.08601 178 168 158
-0.983393 -0.110288 2.08866 180 153 160
-0.96234 -0.110812 2.10493 185 170 163
-0.927088 -0.109101 2.09395 179 164 159
-0.905649 -0.109616 2.11026 177 164 148
-0.877303 -0.109019 2.11293 188 174 165
-0.848958 -0.108421 2.1156 188 171 163
-0.832883 -0.110017 2.14569 186 167 169
-0.804152 -0.109411 2.14839 188 172 156
-0.77542 -0.108806 2.15109 187 169 157
-0.746689 -0.1082 2.1538 190 171 154
-0.723704 -0.108752 2.17127 191 171 160
-0.694766 -0.108142 2.17399 182 161 156
-0.671162 -0.10868 2.19152 184 165 158
-0.647143 -0.10921 2.20909 186 167 161
-0.617792 -0.108592 2.21186 161 141 132
-0.593154 -0.109108 2.22948 183 165 161
-0.563595 -0.108485 2.23227 180 161 154
-0.538337 -0.108989 2.24995 179 163 147
-0.508572 -0.108362 2.25275 177 163 160
-0.482953 -0.108927 2.2715 166 149 133
-0.449043 -0.107107 2.25836 179 155 151
-0.419278 -0.106479 2.26116 160 143 133
-0.389513 -0.105852 2.26396 174 157 147
-0.363012 -0.106399 2.28278 177 158 152
-0.342155 -0.109275 2.33374 165 150 131
-0.308686 -0.107464 2.32056 174 156 146
-0.280862 -0.107983 2.3395 157 139 125
-0.250215 -0.107337 2.34239 174 156 144
-0.219569 -0.106691 2.34527 163 143 132
-0.190984 -0.107263 2.36531 174 157 139
-0.160103 -0.106612 2.36822 165 141 129
-0.129222 -0.105961 2.37113 161 141 132
-0.0983408 -0.10531 2.37403 167 147 136
-0.0685846 -0.105857 2.39418 172 150 137
-0.0383599 -0.106394 2.41438 166 151 130
-0.00635413 -0.104545 2.40004 173 151 137
0.0221049 -0.111337 2.51192 137 114 96
0.0549045 -0.109333 2.49562 96 73 67
0.0871831 -0.107409 2.48028 139 114 84
0.11956 -0.10797 2.5017 146 120 95
0.151888 -0.107289 2.50475 144 117 98
0.183423 -0.105381 2.48934 144 120 94
0.217643 -0.107215 2.53033 142 116 99
0.251594 -0.107812 2.55291 143 119 91
0.284445 -0.10712 2.556 140 113 92
0.319182 -0.1077 2.57867 148 120 96
0.350148 -0.105735 2.56219 142 118 92
0.383 -0.105042 2.56528 141 112 96
0.415851 -0.10435 2.56837 138 113 83
0.451635 -0.104908 2.59113 135 107 96
0.484748 -0.10421 2.59425 138 111 90
0.521317 -0.104752 2.61708 137 110 89
0.554692 -0.104048 2.62022 130 107 89
0.588067 -0.103345 2.62336 127 97 86
0.621442 -0.102641 2.6265 129 103 90
0.654818 -0.101938 2.62964 126 104 81
0.688193 -0.101234 2.63278 125 103 80
0.721568 -0.10053 2.63593 127 104 90
0.754943 -0.0998269 2.63907 124 102 78
0.788318 -0.0991234 2.64221 124 102 81
0.827811 -0.0996725 2.66634 129 106 90
0.867855 -0.10021 2.69052 118 96 72
0.895113 -0.0982538 2.67267 125 99 86
0.928764 -0.0975445 2.67584 127 100 79
0.962414 -0.0968352 2.679 123 96 85
0.974327 -0.0925773 2.62093 116 96 87
0.985418 -0.0884748 2.56482 124 101 83
1.00301 -0.085617 2.52973 130 104 89
1.02045 -0.0829006 2.49667 121 100 83
1.03695 -0.0802041 2.46352 117 98 84
1.05339 -0.0776467 2.43241 119 92 85
-1.17416 -0.083192 2.01122 177 162 155
-1.14676 -0.0826145 2.01379 169 156 147
-1.12782 -0.08299 2.02984 169 157 145
-1.10023 -0.0824084 2.03244 181 163 159
-1.07265 -0.0818269 2.03503 182 165 158
-1.06024 -0.0830597 2.06371 170 152 142
-1.03996 -0.0834069 2.07989 183 173 161
-1.01181 -0.0828135 2.08254 187 167 169
-0.983658 -0.08222 2.08518 163 147 132
-0.969708 -0.0834756 2.11503 188 169 162
-0.934261 -0.0819536 2.1041 185 165 164
-0.912632 -0.0822724 2.1204 171 153 139
-0.87757 -0.0807586 2.10943 185 166 160
-0.855555 -0.0810692 2.12577 187 168 164
-0.833153 -0.0813718 2.14214 176 158 158
-0.804422 -0.0807662 2.14485 187 169 159
-0.781853 -0.0811205 2.16226 179 160 154
-0.752915 -0.0805105 2.16498 179 163 150
-0.729725 -0.0808518 2.18245 180 167 151
-0.700581 -0.0802375 2.18519 187 170 160
-0.676771 -0.0805657 2.20271 184 167 151
-0.64742 -0.079947 2.20548 186 166 159
-0.618068 -0.0793282 2.20824 157 139 129
-0.598147 -0.0805686 2.24068 180 162 152
-0.568382 -0.0799411 2.24348 183 169 158
-0.538617 -0.0793137 2.24628 180 160 153
-0.508852 -0.0786863 2.24908 178 162 149
-0.487383 -0.0800046 2.28371 171 152 138
-0.457177 -0.0793678 2.28655 173 154 147
-0.423265 -0.0777675 2.27344 157 138 132
-0.400251 -0.0790534 2.30821 171 154 146
-0.369825 -0.078412 2.31108 179 161 151
-0.342444 -0.0787202 2.32996 166 148 138
-0.311797 -0.0780742 2.33284 165 150 143
-0.28115 -0.0774282 2.33573 155 137 127
-0.250504 -0.0767822 2.33861 170 154 138
-0.219857 -0.0761362 2.34149 161 141 132
-0.191274 -0.0764745 2.36151 166 154 138
-0.160393 -0.0758235 2.36441 164 142 131
-0.129512 -0.0751725 2.36732 162 139 125
-0.0999927 -0.0754911 2.38742 171 149 128
-0.0700045 -0.0757997 2.40756 171 149 135
-0.038655 -0.0751389 2.41051 164 145 139
-0.00664701 -0.0735234 2.3962 172 154 134
0.0213241 -0.0799067 2.52722 138 115 99
0.0546002 -0.0771023 2.49163 106 90 57
0.086928 -0.0764209 2.49467 141 112 96
0.119567 -0.0767843 2.51711 136 113 79
0.152157 -0.0760973 2.52017 137 117 93
0.184747 -0.0754104 2.52324 135 114 93
0.218433 -0.0757518 2.54577 136 114 93
0.252643 -0.0760821 2.56835 137 112 82
0.285757 -0.0753841 2.57147 137 111 88
0.316988 -0.0736743 2.55505 137 111 88
0.351983 -0.0739881 2.5777 135 109 82
0.385097 -0.07329 2.58081 141 116 86
0.41821 -0.072592 2.58393 135 117 81
0.451323 -0.071894 2.58705 133 104 88
0.487628 -0.0721802 2.60982 136 110 85
0.524638 -0.0725068 2.63369 127 100 73
0.554378 -0.0707731 2.61611 133 107 92
0.591939 -0.0710882 2.64002 130 104 77
0.62559 -0.0703788 2.64319 128 106 93
0.654504 -0.0686625 2.62553 129 104 82
0.687879 -0.067959 2.62867 126 105 88
0.726542 -0.0682508 2.65269 124 101 85
0.760193 -0.0675414 2.65585 124 104 71
0.793844 -0.0668321 2.65902 122 105 79
0.827495 -0.0661227 2.66219 118 95 79
0.867536 -0.0663855 2.68633 126 104 80
0.894796 -0.064704 2.66852 121 98 82
0.935389 -0.0649552 2.69272 123 93 82
0.962097 -0.0632854 2.67486 123 95 83
0.974018 -0.0598243 2.61688 121 97 85
0.992108 -0.05734 2.57986 118 97 92
1.00272 -0.054128 2.52584 117 99 85
1.02016 -0.0518788 2.49284 118 101 85
1.02978 -0.0489088 2.4428 128 107 88
1.04601 -0.0467957 2.41172 135 110 90
-1.18326 -0.0566483 2.02125 181 163 151
-1.14702 -0.0553021 2.01042 179 160 154
-1.12808 -0.0554852 2.02644 160 144 131
-1.10816 -0.0556061 2.04154 176 166 157
-1.0804 -0.0550208 2.04415 179 162 154
-1.06838 -0.0559323 2.07377 153 140 124
-1.04791 -0.0560832 2.08993 184 166 154
-1.01956 -0.0554857 2.0926 178 168 159
-0.998515 -0.0556244 2.10882 162 139 131
-0.969977 -0.0550228 2.11151 183 164 150
-0.941439 -0.0544212 2.11419 177 165 167
-0.9129 -0.0538197 2.11688 158 141 125
-0.890886 -0.053938 2.13319 184 164 155
-0.855823 -0.0526165 2.12225 183 166 158
-0.840001 -0.0534894 2.15324 165 146 139
-0.811063 -0.0528794 2.15596 188 168 159
-0.788289 -0.0530233 2.17337 181 160 159
-0.765101 -0.0531585 2.19081 171 154 144
-0.73575 -0.0525398 2.19357 181 163 151
-0.706399 -0.0519211 2.19633 179 167 151
-0.677047 -0.0513023 2.19909 177 159 149
-0.652826 -0.0514158 2.21663 179 160 156
-0.623268 -0.0507927 2.21941 155 139 126
-0.598427 -0.0508931 2.23701 179 159 148
-0.568662 -0.0502656 2.23981 178 161 153
-0.543488 -0.0504006 2.25846 176 156 149
-0.517873 -0.0505262 2.27714 178 164 155
-0.487667 -0.0498895 2.27999 162 144 130
-0.457461 -0.0492527 2.28283 169 155 142
-0.430964 -0.0493598 2.3016 159 141 131
-0.400538 -0.0487184 2.30446 170 151 144
-0.373379 -0.0488115 2.32329 174 158 145
-0.34597 -0.0489409 2.34317 169 151 141
-0.315089 -0.04829 2.34607 169 156 137
-0.284208 -0.047639 2.34898 156 135 132
-0.253327 -0.0469881 2.35189 169 155 152
-0.224746 -0.0470928 2.37187 159 140 133
-0.193631 -0.0464369 2.3748 168 147 142
-0.160684 -0.0450352 2.3606 164 141 135
-0.131401 -0.0451251 2.38065 157 137 128
-0.101649 -0.0452051 2.40075 161 143 133
-0.0714287 -0.0452753 2.42088 166 148 136
-0.0407926 -0.0453783 2.44208 170 147 139
-0.00896078 -0.0447073 2.44507 170 148 134
0.0214914 -0.0463533 2.50389 136 113 95
0.0540811 -0.0456663 2.50695 119 92 73
0.0866708 -0.0449794 2.51002 143 116 89
0.11926 -0.0442924 2.51309 141 115 100
0.152421 -0.0443838 2.53554 141 116 96
0.185272 -0.0436913 2.53863 141 116 96
0.219218 -0.0437661 2.56115 144 116 92
0.252332 -0.0430681 2.56427 137 115 94
0.285445 -0.0423701 2.56738 141 116 85
0.318558 -0.0416721 2.5705 140 113 86
0.351672 -0.0409741 2.57362 138 108 84
0.384785 -0.0402761 2.57673 135 109 84
0.420563 -0.0403122 2.59943 134 111 97
0.451011 -0.03888 2.58296 134 109 87
0.487314 -0.0389052 2.60571 134 106 82
0.524321 -0.038957 2.62954 128 107 78
0.557972 -0.0382477 2.6327 125 104 87
0.591623 -0.0375384 2.63587 129 109 76
0.625273 -0.036829 2.63904 122 106 80
0.658924 -0.0361197 2.6422 121 94 77
0.692575 -0.0354103 2.64537 129 102 81
0.726226 -0.034701 2.64854 121 99 86
0.759876 -0.0339916 2.6517 123 101 80
0.799364 -0.0339912 2.67577 124 95 79
0.833291 -0.0332761 2.67896 122 95 74
0.867217 -0.0325609 2.68215 117 98 68
0.901143 -0.0318458 2.68534 117 99 77
0.93507 -0.0311306 2.68854 124 102 91
0.961781 -0.0297356 2.67071 122 101 84
0.980825 -0.0277118 2.63283 121 96 92
0.991804 -0.0251091 2.57588 123 105 85
1.00966 -0.0232352 2.54094 118 95 79
1.01279 -0.0202987 2.47104 120 92 89
1.03637 -0.0190945 2.45597 122 103 88
1.05992 -0.0179325 2.44191 122 104 82
-1.18352 -0.0291434 2.01785 153 137 124
-1.15593 -0.0285619 2.02044 149 137 123
-1.12834 -0.0279804 2.02304 140 123 115
-1.11669 -0.0284869 2.05156 153 138 135
-1.08873 -0.0278975 2.05419 152 133 129
-1.07652 -0.0284203 2.08377 134 116 106
-1.04818 -0.0278228 2.08644 150 136 123
-1.02732 -0.0277732 2.10262 152 135 128
-0.998784 -0.0271716 2.1053 136 123 114
-0.970246 -0.02657 2.10799 145 135 133
-0.941707 -0.0259685 2.11068 152 133 118
-0.913169 -0.0253669 2.11336 134 118 119
-0.891157 -0.0252929 2.12965 143 125 121
-0.869211 -0.0252481 2.14695 147 134 125
-0.846853 -0.0251947 2.16429 137 121 108
-0.82408 -0.0251326 2.18166 143 122 119
-0.794729 -0.0245139 2.18443 150 132 120
-0.765378 -0.0238951 2.18719 136 118 106
-0.736026 -0.0232764 2.18995 141 125 109
-0.712221 -0.0231925 2.20742 138 126 114
-0.682662 -0.0225694 2.21021 140 122 112
-0.653104 -0.0219463 2.21299 141 123 119
-0.628472 -0.021845 2.23054 124 106 94
-0.603741 -0.0217693 2.24912 135 118 108
-0.583381 -0.0222316 2.28353 140 124 111
-0.552955 -0.0215903 2.28639 129 117 105
-0.522529 -0.0209489 2.28926 140 122 110
-0.496254 -0.0208408 2.30798 129 111 97
-0.465608 -0.0201948 2.31086 132 115 99
-0.434961 -0.0195487 2.31375 120 104 91
-0.408022 -0.0194545 2.33355 132 110 97
-0.377141 -0.0188035 2.33645 135 114 97
-0.3495 -0.0186944 2.35632 123 103 96
-0.318385 -0.0180385 2.35925 136 113 97
-0.290041 -0.0179147 2.37918 128 108 101
-0.258692 -0.0172538 2.38213 132 119 100
-0.229645 -0.0171151 2.40213 116 100 77
-0.198061 -0.0164493 2.4051 130 112 100
-0.166477 -0.0157836 2.40807 122 104 90
-0.134894 -0.0151178 2.41104 117 99 85
-0.104756 -0.014984 2.43216 126 103 89
-0.0741219 -0.0148396 2.45332 133 107 90
-0.0420421 -0.0141634 2.45634 137 115 94
-0.00996229 -0.0134872 2.45936 141 116 94
0.0221175 -0.012811 2.46238 148 123 103
0.0539916 -0.0126405 2.48366 159 134 112
0.086364 -0.0124874 2.506 126 100 75
0.118954 -0.0118005 2.50907 136 111 89
0.152112 -0.0116308 2.53149 140 112 100
0.184963 -0.0109383 2.53458 138 107 86
0.218907 -0.0107521 2.55707 136 109 88
0.253374 -0.0105549 2.57961 138 116 79
0.286749 -0.00985133 2.58275 136 113 81
0.320124 -0.00914779 2.58589 141 113 91
0.353499 -0.00844425 2.58903 132 112 88
0.386874 -0.00774072 2.59217 139 114 84
0.420249 -0.00703718 2.59531 133 106 87
0.453624 -0.00633365 2.59845 139 106 89
0.487 -0.00563011 2.60159 130 102 90
0.527634 -0.00588785 2.64604 127 105 81
0.557655 -0.00469787 2.62855 129 108 77
0.595487 -0.00445755 2.65243 124 103 72
0.629413 -0.00374239 2.65562 132 106 83
0.663339 -0.00302724 2.65881 126 102 78
0.702274 -0.0027637 2.68279 122 97 75
0.731192 -0.00159693 2.6652 122 96 81
0.770677 -0.00132177 2.68922 118 98 74
0.799045 -0.000166618 2.67158 122 98 74
0.839081 0.000120156 2.69566 118 95 81
0.873283 0.000841121 2.69888 117 95 74
0.907485 0.00156209 2.7021 118 92 75
0.941687 0.00228305 2.70532 116 87 79
0.961464 0.00381427 2.66656 122 99 81
0.973399 0.00568163 2.60878 119 99 72
0.9915 0.0071218 2.57189 121 97 87
1.00936 0.00850112 2.53701 120 102 64
1.0125 0.0104897 2.46723 114 98 82
1.03608 0.0114603 2.45219 123 101 87
1.05254 0.0126987 2.42124 123 105 83
-1.20083 -0.00237933 2.04021 142 121 104
-1.17287 -0.00178995 2.04285 142 126 110
-1.15337 -0.00157648 2.05887 137 119 105
-1.13348 -0.00135488 2.07494 134 121 102
-1.10513 -0.000757363 2.07761 145 126 111
-1.08467 -0.000523563 2.09373 136 115 110
-1.06381 -0.000281655 2.10988 145 118 109
-1.05114 -0.00043796 2.14149 154 131 115
-1.022 0.000176399 2.14424 138 120 96
-0.99285 0.000790758 2.14698 151 128 114
-0.963706 0.00140512 2.14972 145 127 113
-0.934561 0.00201948 2.15247 148 122 105
-0.912411 0.00227465 2.16976 138 121 103
-0.88306 0.00289336 2.17252 147 130 112
-0.860289 0.0031616 2.18987 146 124 111
-0.830731 0.00378468 2.19265 151 134 106
-0.807341 0.00406596 2.21006 149 125 113
-0.777576 0.00469339 2.21286 149 122 111
-0.747811 0.00532082 2.21566 147 124 108
-0.729881 0.00524704 2.2498 147 125 111
-0.699676 0.00588377 2.25264 141 115 102
-0.66947 0.0065205 2.25548 145 116 102
-0.639264 0.00715722 2.25832 146 120 105
-0.61913 0.00712992 2.29266 144 118 101
-0.588483 0.00777594 2.29555 146 119 108
-0.562718 0.00807907 2.31521 150 124 111
-0.531837 0.00873003 2.31811 145 123 99
-0.500956 0.00938099 2.32102 142 120 96
-0.474254 0.00970384 2.34077 136 115 94
-0.447084 0.0100366 2.36056 143 118 98
-0.415734 0.0106974 2.36351 140 117 99
-0.384385 0.0113583 2.36646 142 123 106
-0.35971 0.0113843 2.40427 141 118 100
-0.327878 0.0120553 2.40727 138 117 98
-0.296046 0.0127263 2.41026 145 120 98
-0.264214 0.0133973 2.41326 138 116 92
-0.234823 0.0137628 2.43427 139 113 96
-0.200551 0.0147393 2.41925 136 115 98
-0.170663 0.0151152 2.44031 134 113 94
-0.138584 0.0157915 2.44333 136 114 93
-0.106504 0.0164677 2.44635 139 109 98
-0.0768911 0.0165696 2.48665 135 113 90
-0.0443015 0.0172566 2.48972 137 110 91
-0.0117118 0.0179436 2.49278 136 112 100
0.0208779 0.0186305 2.49585 140 117 86
0.0532479 0.0190447 2.51816 123 101 77
0.0860994 0.0197372 2.52125 130 106 78
0.118951 0.0204297 2.52434 137 110 93
0.151802 0.0211222 2.52744 140 116 92
0.184654 0.0218147 2.53053 133 104 98
0.218595 0.0222619 2.55298 137 112 90
0.253059 0.0227202 2.57549 142 116 93
0.286435 0.0234237 2.57863 132 103 85
0.31981 0.0241273 2.58177 135 110 88
0.353185 0.0248308 2.58491 136 111 89
0.389085 0.0253052 2.60857 135 113 89
0.422735 0.0260145 2.61174 132 107 85
0.456386 0.0267239 2.6149 133 108 88
0.486685 0.0276449 2.59748 131 101 90
0.530942 0.0277308 2.66248 132 103 73
0.565144 0.0284518 2.66569 118 93 86
0.599346 0.0291728 2.66891 123 94 76
0.633548 0.0298937 2.67213 125 97 83
0.66775 0.0306147 2.67535 125 98 87
0.701952 0.0313356 2.67857 119 96 80
0.736154 0.0320566 2.68179 127 100 91
0.770356 0.0327776 2.68501 119 93 78
0.804558 0.0334985 2.68823 111 90 69
0.845172 0.0340582 2.71334 118 88 77
0.879664 0.0347853 2.71659 112 89 83
0.907163 0.0356614 2.69788 122 99 68
0.941365 0.0363824 2.7011 115 92 74
0.961147 0.0373641 2.66241 117 94 88
0.980201 0.0383163 2.62466 116 92 80
0.98421 0.0394596 2.549 121 97 87
1.00182 0.0403391 2.51416 121 104 76
1.01221 0.041278 2.46343 121 93 81
1.03579 0.0420151 2.44841 121 96 76
1.05226 0.0428139 2.41752 123 101 80
-1.20994 0.0253047 2.0501 139 118 99
-1.19044 0.0257105 2.06611 132 113 99
-1.16209 0.026308 2.06878 139 116 102
-1.14201 0.026726 2.08484 135 117 95
-1.12155 0.0271522 2.10093 136 119 99
-1.10126 0.0275742 2.11803 129 107 96
-1.08056 0.028005 2.13516 129 120 87
-1.05141 0.0286193 2.1379 131 111 87
-1.03009 0.0290631 2.15509 128 112 89
-1.00074 0.0296819 2.15785 141 117 93
-0.9788 0.0301387 2.1751 141 119 98
-0.949242 0.0307618 2.17788 137 120 102
-0.92668 0.0312318 2.19519 135 109 94
-0.890126 0.0320079 2.18344 138 116 102
-0.874173 0.0323326 2.21632 138 112 89
-0.844187 0.0329647 2.21915 138 110 99
-0.820783 0.033452 2.23754 143 115 103
-0.790577 0.0340887 2.24039 135 111 101
-0.760371 0.0347255 2.24323 146 117 101
-0.736085 0.0352314 2.26171 142 119 103
-0.705659 0.0358728 2.26457 140 117 101
-0.675233 0.0365142 2.26744 136 115 96
-0.644807 0.0371555 2.2703 140 116 104
-0.630123 0.0374463 2.32229 135 112 96
-0.599008 0.0381022 2.32522 137 115 101
-0.572776 0.0386487 2.3449 137 116 95
-0.541427 0.0393096 2.34785 136 113 95
-0.510078 0.0399704 2.3508 141 113 109
-0.482909 0.0405367 2.37056 141 114 95
-0.451326 0.0412025 2.37353 141 116 96
-0.419742 0.0418683 2.3765 137 112 90
-0.388158 0.042534 2.37948 133 116 96
-0.366879 0.0429623 2.43614 135 109 96
-0.331364 0.0437177 2.42126 139 110 96
-0.299285 0.0443939 2.42428 135 112 96
-0.269896 0.0450067 2.44526 133 115 95
-0.237568 0.0456881 2.44831 130 103 94
-0.20524 0.0463696 2.45135 133 110 92
-0.174967 0.0470006 2.47343 134 112 91
