ply
format ascii 1.0
element vertex 1325
property float x
property float y
property float z
property uchar red
property uchar green
property uchar blue
end_header
-0.675071 0.554419 1.92333 35 25 23
-0.653186 0.558146 1.9374 40 30 20
-0.635786 0.565147 1.96376 42 35 27
-0.604503 0.562858 1.95527 37 26 22
-0.581779 0.566607 1.96943 33 24 27
-0.559053 0.570617 1.98458 35 25 24
-0.531871 0.571352 1.98743 38 26 26
-0.508608 0.575377 2.00263 31 24 18
-0.481247 0.576117 2.0055 43 28 31
-0.453886 0.576856 2.00838 41 32 27
-0.426525 0.577596 2.01125 37 26 22
-0.399163 0.578336 2.01413 36 30 18
-0.371802 0.579076 2.017 41 32 23
-0.347506 0.58339 2.03329 31 24 14
-0.32262 0.587458 2.04866 35 28 20
-0.396343 0.723914 2.561 82 64 52
-0.361315 0.724861 2.56468 91 72 65
-0.326288 0.725808 2.56835 97 77 66
-0.294564 0.732413 2.59327 95 78 58
-0.259233 0.733368 2.59699 108 88 79
-0.223903 0.734323 2.6007 106 86 77
-0.190968 0.74096 2.62574 104 82 69
-0.155335 0.741924 2.62949 99 79 80
-0.121572 0.748845 2.6556 102 79 73
-0.0856225 0.749817 2.65938 110 90 83
-0.0496729 0.750789 2.66315 109 84 79
-0.0137234 0.75176 2.66693 109 86 78
0.0222261 0.752732 2.67071 97 71 74
0.0581756 0.753704 2.67448 80 57 51
0.0940686 0.74292 2.63409 70 56 47
0.129068 0.738119 2.61618 32 20 20
0.153935 0.646579 2.2724 24 22 23
0.182104 0.635063 2.22924 32 28 25
0.208247 0.620096 2.17311 30 23 17
0.22398 0.572195 1.99322 46 36 34
0.245267 0.55762 1.93854 53 42 38
0.266325 0.546695 1.89758 52 41 47
0.285169 0.53336 1.84755 47 37 36
0.305432 0.526071 1.82024 92 82 70
0.306813 0.484312 1.66338 165 146 129
0.324551 0.478522 1.64169 163 147 124
0.34063 0.47112 1.61394 167 151 128
0.359847 0.46955 1.60811 171 156 135
0.376129 0.464243 1.58823 175 159 134
0.390559 0.457319 1.56227 177 159 135
0.410419 0.457856 1.56436 174 155 125
0.428633 0.45652 1.5594 177 159 137
0.444911 0.453303 1.54737 171 156 127
0.464482 0.453832 1.54943 176 157 124
0.482394 0.452749 1.54542 171 155 122
0.499851 0.451392 1.54039 171 151 124
0.517115 0.450031 1.53533 169 152 122
0.536411 0.450552 1.53736 176 158 136
0.553718 0.449453 1.53329 173 157 123
0.56637 0.444832 1.51597 166 144 121
0.582808 0.443447 1.51083 161 140 111
0.601664 0.443957 1.51281 167 138 124
0.635598 0.455062 1.55465 170 150 117
0.652187 0.453682 1.54952 179 158 127
0.668999 0.452569 1.5454 175 152 120
0.688212 0.453089 1.54742 173 143 109
-1.37837 0.658098 2.18908 122 108 95
-1.34706 0.658945 2.19237 126 109 101
-1.32626 0.664182 2.2112 131 113 103
-1.29471 0.665034 2.21452 135 118 102
-1.26317 0.665887 2.21783 140 122 112
-1.25239 0.676077 2.25423 139 125 112
-1.22035 0.676944 2.25759 146 135 117
-1.18831 0.67781 2.26096 153 136 128
-1.16591 0.683365 2.28094 156 136 127
-1.13362 0.684238 2.28433 153 139 128
-0.874691 0.568603 1.87463 37 28 23
-0.854474 0.572449 1.88851 40 32 29
-0.828158 0.57316 1.89127 47 36 42
-0.801843 0.573872 1.89404 41 30 34
-0.781418 0.577999 1.90892 30 20 19
-0.754924 0.578715 1.9117 34 25 18
-0.733537 0.582593 1.9257 34 26 24
-0.706878 0.583314 1.9285 40 29 25
-0.685393 0.587469 1.94349 35 25 24
-0.658555 0.588195 1.94631 30 21 14
-0.631717 0.58892 1.94913 27 23 14
-0.604879 0.589646 1.95195 41 30 28
-0.582156 0.59356 1.96609 32 23 18
-0.563713 0.601207 1.9935 31 20 18
-0.536352 0.601947 1.99637 33 24 19
-0.508991 0.602687 1.99924 39 28 22
-0.48163 0.603427 2.00212 35 24 20
-0.454268 0.604166 2.00499 30 21 22
-0.430553 0.608657 2.0212 31 22 23
-0.402999 0.609402 2.02409 33 22 18
-0.375445 0.610147 2.02698 35 25 24
-0.35074 0.614389 2.04231 37 28 29
-0.325883 0.618911 2.05864 30 20 18
-0.396832 0.758876 2.55666 70 51 45
-0.361805 0.759823 2.56034 73 55 43
-0.326778 0.76077 2.56402 76 58 38
-0.29175 0.761717 2.5677 83 59 57
-0.256723 0.762664 2.57138 80 55 50
-0.221695 0.763611 2.57506 72 55 45
-0.186668 0.764558 2.57873 72 55 45
-0.151641 0.765505 2.58241 86 61 54
-0.118407 0.772452 2.60745 84 62 49
-0.0815859 0.767398 2.58977 78 60 50
-0.0465585 0.768345 2.59345 87 66 61
-0.0115311 0.769292 2.59713 83 58 51
0.0234963 0.770239 2.60081 80 56 54
0.0585237 0.771186 2.60449 70 52 48
0.0935287 0.766358 2.58759 66 54 40
0.128267 0.767298 2.59124 51 36 33
0.153513 0.676691 2.26867 25 19 23
0.182326 0.668671 2.24034 27 21 21
0.20706 0.644868 2.15576 30 22 20
0.230742 0.626535 2.09065 36 27 30
0.243993 0.579874 1.92453 55 45 44
0.264907 0.568341 1.88363 52 37 42
0.284833 0.557331 1.84458 52 42 43
0.303977 0.547125 1.80838 44 30 27
0.306514 0.505674 1.66073 133 116 96
0.323189 0.497601 1.63212 164 147 129
0.339011 0.489504 1.60341 135 119 106
0.3556 0.483904 1.5836 112 100 88
0.371777 0.478567 1.56473 140 128 102
0.387376 0.473214 1.54579 144 132 106
0.404167 0.470094 1.53482 170 150 126
0.418955 0.464994 1.51678 172 157 124
0.436427 0.463542 1.51176 172 152 127
0.453969 0.462366 1.50773 168 153 114
0.469411 0.459209 1.49661 170 156 121
0.488266 0.459719 1.4986 171 152 122
0.509249 0.462211 1.50766 168 142 119
0.525978 0.460738 1.50256 163 143 118
0.544833 0.461248 1.50454 175 149 126
0.561618 0.460052 1.50042 176 145 127
0.578238 0.458852 1.49629 179 155 143
0.594692 0.457647 1.49214 173 143 117
0.610981 0.456437 1.48797 140 89 68
0.629506 0.456938 1.48992 151 115 99
0.643064 0.454005 1.47959 163 138 107
0.676822 0.464816 1.5184 161 146 123
-1.37881 0.689351 2.1852 137 115 118
-1.3475 0.690197 2.18849 149 125 121
-1.3267 0.695668 2.2073 135 112 106
-1.29515 0.69652 2.21061 139 115 111
-1.27424 0.702282 2.23041 136 119 111
-1.25284 0.708058 2.25026 146 126 119
-1.2208 0.708924 2.25363 139 123 110
-1.19865 0.71472 2.27355 139 121 111
-1.16636 0.715592 2.27695 131 118 101
-1.13408 0.716465 2.28034 142 120 96
-0.881157 0.598003 1.88249 50 35 32
-0.854842 0.598715 1.88525 41 32 23
-0.834777 0.60301 1.90007 29 20 25
-0.808283 0.603727 1.90285 34 26 23
-0.787229 0.60776 1.9168 33 22 18
-0.760569 0.608481 1.9196 35 29 31
-0.739445 0.612806 1.93453 38 23 28
-0.707251 0.609923 1.9252 36 30 18
-0.690548 0.617592 1.9514 37 26 30
-0.65893 0.614982 1.94299 31 22 25
-0.636541 0.619052 1.95707 32 29 24
-0.614178 0.62341 1.97214 28 22 22
-0.582534 0.620512 1.96275 36 25 23
-0.564096 0.628517 1.99011 31 21 19
-0.536735 0.629257 1.99298 31 23 21
-0.509373 0.629997 1.99586 36 22 22
-0.486046 0.634669 2.012 33 29 17
-0.458492 0.635414 2.01489 33 22 26
-0.434327 0.639821 2.03014 31 23 20
-0.406594 0.640571 2.03306 31 24 16
-0.378861 0.64132 2.03597 31 21 19
-0.351128 0.64207 2.03888 34 29 23
-0.329151 0.650748 2.06857 37 28 31
-0.385238 0.775975 2.49198 49 35 26
-0.351078 0.776899 2.49557 57 40 33
-0.316917 0.777822 2.49916 62 42 35
-0.282757 0.778746 2.50275 73 54 48
-0.248597 0.779669 2.50634 74 54 43
-0.214437 0.780593 2.50992 72 56 41
-0.180276 0.781516 2.51351 69 50 46
-0.144206 0.776717 2.49774 79 58 55
-0.111956 0.783363 2.52069 82 59 51
-0.0777953 0.784287 2.52428 89 67 56
-0.0436349 0.785211 2.52786 83 55 52
-0.00947461 0.786134 2.53145 85 65 56
0.0252188 0.781298 2.51554 82 57 52
0.058846 0.787981 2.53863 67 51 38
0.0930063 0.788905 2.54222 74 56 54
0.127167 0.789828 2.5458 70 50 49
0.160191 0.779173 2.51015 31 23 20
0.181278 0.693996 2.22193 28 24 25
0.206662 0.673318 2.15223 32 23 26
0.231263 0.657815 2.10005 34 30 27
0.240886 0.595426 1.88885 34 29 25
0.263494 0.589685 1.86971 54 43 51
0.283387 0.578386 1.83171 48 36 38
0.302401 0.56764 1.79557 52 40 42
0.319234 0.554526 1.75137 55 44 38
0.319394 0.511801 1.60666 79 69 60
0.3364 0.50591 1.58693 84 70 57
0.3528 0.500001 1.56714 82 70 58
0.367433 0.492313 1.54129 91 75 75
0.384406 0.489019 1.53036 94 82 82
0.399473 0.483652 1.51239 131 114 96
0.415633 0.480336 1.50137 175 153 140
0.431436 0.47701 1.49032 175 159 126
0.448717 0.475744 1.48627 182 166 133
0.465833 0.474475 1.4822 176 158 138
0.481045 0.471422 1.47206 178 156 135
0.49957 0.471923 1.47401 175 154 123
0.516191 0.47064 1.46988 172 144 123
0.530659 0.467566 1.45967 145 99 86
0.551007 0.469849 1.46767 146 93 89
0.567215 0.468555 1.46351 141 68 62
0.587727 0.470841 1.47153 142 41 45
0.60377 0.469543 1.46735 139 37 33
0.619647 0.46824 1.46315 133 38 34
0.637842 0.468732 1.46506 122 50 51
0.656037 0.469224 1.46697 138 109 91
-1.37924 0.720603 2.18132 44 39 33
-1.35868 0.726301 2.20008 106 87 81
-1.32714 0.727153 2.20339 124 102 91
-1.30648 0.733156 2.22313 120 102 102
-1.27469 0.734016 2.22647 132 113 98
-1.26368 0.745201 2.26277 135 112 104
-1.23139 0.746074 2.26617 134 113 96
-1.1991 0.746947 2.26956 132 109 103
-1.177 0.753291 2.29043 128 100 97
-1.14445 0.754171 2.29385 129 106 90
-1.1119 0.755051 2.29726 58 44 31
-0.85521 0.624981 1.88199 43 36 26
-0.835148 0.629455 1.89679 30 23 15
-0.814261 0.633649 1.9107 32 24 21
-0.798939 0.641625 1.93671 39 27 29
-0.771936 0.642355 1.93955 37 30 22
-0.744932 0.643085 1.94239 28 22 10
-0.723288 0.647602 1.95735 36 25 23
-0.690925 0.644545 1.94806 41 32 27
-0.668923 0.649071 1.96306 33 23 24
-0.64174 0.649806 1.96592 38 27 23
-0.614558 0.650541 1.96877 24 24 14
-0.587376 0.651276 1.97163 33 26 18
-0.564479 0.655827 1.98672 36 27 22
-0.545646 0.664502 2.01506 28 25 16
-0.517913 0.665252 2.01797 37 28 23
-0.49018 0.666002 2.02088 33 22 30
-0.462447 0.666752 2.0238 33 27 15
-0.438366 0.671637 2.03999 35 32 17
-0.41044 0.672392 2.04293 37 30 24
-0.382515 0.673147 2.04586 28 19 14
-0.354589 0.673902 2.04879 30 30 22
-0.332425 0.68297 2.07845 30 23 17
-0.378036 0.798181 2.44951 56 43 26
-0.344426 0.799089 2.45304 63 47 34
-0.310816 0.799998 2.45657 65 47 37
-0.277206 0.800907 2.4601 77 58 52
-0.243596 0.801815 2.46363 72 53 39
-0.209987 0.802724 2.46716 74 54 43
-0.174188 0.797643 2.4514 88 64 52
-0.140854 0.798544 2.4549 81 57 45
-0.109157 0.80545 2.47775 85 62 54
-0.0755475 0.806359 2.48128 85 61 51
-0.0419377 0.807267 2.48481 84 55 41
-0.00751573 0.802149 2.4689 79 60 46
0.0258188 0.80305 2.47241 78 59 53
0.0591533 0.803951 2.47591 77 58 54
0.0924749 0.799106 2.46086 69 56 39
0.125822 0.805754 2.48291 70 54 41
0.158621 0.800894 2.46781 54 47 28
0.207044 0.706023 2.16245 34 30 31
0.229972 0.68154 2.08383 35 26 31
0.251114 0.658822 2.01088 33 29 28
0.262182 0.611032 1.85682 45 35 34
0.283053 0.60222 1.82875 48 38 39
0.302075 0.590939 1.79268 58 46 46
0.318917 0.577179 1.74856 46 38 27
0.334921 0.564304 1.70729 50 43 37
0.333628 0.521623 1.56951 87 76 72
0.351262 0.517865 1.55769 86 73 56
0.365805 0.50979 1.53188 114 102 90
0.381234 0.504158 1.51398 160 145 126
0.396333 0.49882 1.49702 170 157 123
0.412317 0.49532 1.486 166 151 130
0.426701 0.490265 1.46994 170 155 122
0.440589 0.485196 1.45383 171 153 133
0.455638 0.481973 1.4437 167 151 125
0.472095 0.480604 1.43957 162 147 118
0.490207 0.481093 1.44147 165 151 114
0.506416 0.479717 1.43731 171 146 126
0.520805 0.476779 1.42809 170 114 117
0.538683 0.477262 1.42996 183 125 124
0.556562 0.477746 1.43184 164 109 115
0.572579 0.476666 1.42864 168 103 107
0.592319 0.478712 1.4356 166 96 104
0.608198 0.477629 1.43238 156 85 93
0.628076 0.479679 1.43935 147 94 86
0.645954 0.480162 1.44123 165 143 122
-1.35913 0.757787 2.19617 105 85 78
-1.33872 0.76403 2.21586 119 89 79
-1.30693 0.764889 2.2192 104 80 70
-1.27513 0.765749 2.22254 111 82 78
-1.25374 0.772019 2.24233 114 92 78
-1.21155 0.767468 2.22922 116 88 74
-1.18966 0.773751 2.24906 109 90 76
-1.15761 0.774617 2.25242 119 89 79
-1.12557 0.775484 2.25579 124 97 86
-0.867952 0.658817 1.9018 40 33 27
-0.847549 0.663479 1.91661 30 23 17
-0.820711 0.664204 1.91943 31 26 20
-0.805215 0.672528 1.94542 35 27 25
-0.772313 0.669307 1.93621 42 32 30
-0.75085 0.673998 1.95113 43 33 34
-0.723668 0.674733 1.95399 33 26 18
-0.696485 0.675468 1.95684 35 24 22
-0.674306 0.680178 1.97184 26 21 25
-0.642121 0.676938 1.96255 37 31 31
-0.619584 0.681657 1.97759 33 23 22
-0.592223 0.682397 1.98046 34 25 16
-0.573767 0.691433 2.00871 31 26 20
-0.546034 0.692183 2.01162 23 20 15
-0.522533 0.697245 2.02774 31 26 22
-0.494607 0.698 2.03067 38 28 19
-0.466682 0.698755 2.0336 34 24 22
-0.438756 0.69951 2.03654 37 29 18
-0.410831 0.700265 2.03947 37 27 25
-0.382905 0.70102 2.0424 31 21 20
-0.358056 0.706119 2.05866 36 25 29
-0.332821 0.711228 2.07495 40 29 25
-0.367358 0.813689 2.39 51 34 27
-0.334547 0.814576 2.39345 60 41 43
-0.301735 0.815464 2.39689 62 45 35
-0.266056 0.81042 2.38212 72 49 41
-0.233506 0.8113 2.38554 75 58 51
-0.200956 0.81218 2.38896 77 57 46
-0.168406 0.81306 2.39238 79 59 52
-0.135856 0.81394 2.3958 76 53 47
-0.104866 0.820786 2.41757 80 55 48
-0.0720544 0.821673 2.42102 82 57 53
-0.0392429 0.82256 2.42446 96 71 67
-0.00643138 0.823447 2.42791 95 72 58
0.0263802 0.824334 2.43135 93 74 59
0.0591917 0.825221 2.4348 88 68 61
0.0919939 0.8201 2.41973 84 70 59
0.124815 0.826996 2.44169 77 53 49
0.157094 0.82186 2.42657 64 50 41
0.18885 0.816711 2.41139 34 28 28
0.205865 0.730218 2.14517 27 22 19
0.231458 0.71763 2.10693 37 26 30
0.250744 0.685267 2.0076 30 26 23
0.26281 0.63848 1.86366 44 39 36
0.281614 0.622863 1.81593 49 42 32
0.301749 0.614237 1.78979 54 38 41
0.318599 0.599832 1.74575 46 37 42
0.335979 0.589235 1.71347 48 36 40
0.351236 0.576367 1.67414 83 66 59
0.349727 0.535537 1.54827 149 131 111
0.364372 0.527396 1.52349 158 140 120
0.379722 0.521487 1.50561 170 147 129
0.393197 0.51363 1.48169 154 140 103
0.409239 0.51027 1.47168 176 162 125
0.423462 0.504963 1.45563 175 153 142
0.437189 0.499642 1.43953 185 161 133
0.450696 0.494632 1.42438 181 157 147
0.46692 0.493174 1.42024 180 159 138
0.481462 0.490089 1.41105 179 158 137
0.495702 0.486995 1.40182 181 160 129
0.511623 0.485845 1.39862 175 146 128
0.527063 0.484365 1.3944 167 128 111
0.544487 0.484836 1.39623 166 120 123
0.561911 0.485307 1.39806 173 107 121
0.58165 0.487738 1.40598 167 95 99
0.59676 0.486249 1.40172 165 89 102
0.614184 0.486721 1.40355 168 137 116
0.636307 0.490797 1.41659 165 143 122
-1.33805 0.778636 2.16145 108 84 72
-1.29645 0.774152 2.14928 115 87 66
-1.26561 0.774986 2.15252 108 84 72
-1.23476 0.77582 2.15576 114 83 81
-1.21374 0.781997 2.17451 115 87 76
-1.19225 0.788187 2.1933 116 94 70
-1.16094 0.789034 2.19659 113 91 78
-1.12963 0.78988 2.19988 119 91 79
-1.1072 0.796095 2.21877 110 92 68
-1.05835 0.786198 2.19083 75 58 50
-0.874762 0.689541 1.91047 39 28 32
-0.847924 0.690267 1.91329 39 29 30
-0.821086 0.690992 1.91611 38 30 28
-0.805595 0.699659 1.94206 45 35 36
-0.778412 0.700394 1.94491 34 22 24
-0.75123 0.701129 1.94777 29 22 14
-0.729411 0.706008 1.9627 35 31 22
-0.707634 0.711216 1.97861 33 23 21
-0.68008 0.711961 1.98151 34 24 32
-0.647328 0.708227 1.97133 33 25 23
-0.624972 0.713451 1.98729 34 25 26
-0.597418 0.714196 1.99019 38 31 23
-0.578775 0.723608 2.01841 35 30 26
-0.550849 0.724363 2.02135 22 16 16
-0.527158 0.729623 2.03745 32 28 19
-0.49904 0.730383 2.04041 30 25 22
-0.470922 0.731143 2.04336 30 26 15
-0.442804 0.731903 2.04631 26 18 15
-0.414685 0.732664 2.04927 33 24 19
-0.386567 0.733424 2.05222 26 16 15
-0.358449 0.734184 2.05517 31 21 19
-0.333217 0.739485 2.07144 32 22 13
-0.35358 0.822409 2.31544 53 37 22
-0.321787 0.823268 2.31878 69 53 38
-0.292962 0.829986 2.33932 77 57 48
-0.258201 0.824987 2.32546 72 52 41
-0.226408 0.825847 2.3288 73 51 40
-0.194615 0.826706 2.33214 68 56 34
-0.162822 0.827566 2.33548 72 53 38
-0.131029 0.828426 2.33882 91 67 57
-0.100717 0.835184 2.35951 96 70 57
-0.0686761 0.83605 2.36288 100 71 63
-0.0366353 0.836916 2.36624 96 69 60
-0.00459452 0.837783 2.36961 92 66 49
0.0274463 0.838649 2.37297 95 68 61
0.059487 0.839515 2.37634 87 60 53
0.0915278 0.840381 2.3797 96 69 62
0.123569 0.841248 2.38307 78 59 52
0.155109 0.836161 2.36887 51 41 39
0.18765 0.84298 2.3898 27 24 19
0.217698 0.831915 2.35793 34 26 23
0.229201 0.736544 2.07701 30 29 25
0.251368 0.715697 2.0161 32 28 25
0.273292 0.700123 1.97073 30 25 21
0.280178 0.64323 1.80315 49 42 34
0.299063 0.631203 1.76817 50 37 44
0.318282 0.622485 1.74294 50 44 44
0.335668 0.611407 1.71072 55 43 45
0.34812 0.592277 1.65463 52 45 37
0.365221 0.584821 1.63308 90 76 63
0.3641 0.546848 1.52108 140 125 106
0.378006 0.538316 1.49627 159 143 120
0.391611 0.530435 1.47338 162 145 117
0.406167 0.52489 1.4574 171 156 127
0.418739 0.517311 1.43537 159 147 131
0.432484 0.512074 1.42027 171 153 117
0.447414 0.508848 1.41114 175 153 132
0.461751 0.505276 1.40097 171 153 133
0.476365 0.502372 1.39278 180 159 130
0.491971 0.500814 1.38858 178 158 131
0.506089 0.497897 1.38033 170 156 111
0.519587 0.494632 1.37105 168 150 128
0.534932 0.493398 1.3678 173 153 128
0.553858 0.495559 1.37465 168 146 123
0.567136 0.492619 1.36632 173 137 121
0.586131 0.494782 1.37318 175 148 129
0.603197 0.495243 1.37497 162 142 109
0.620264 0.495705 1.37676 150 129 100
-1.30684 0.793327 2.11237 99 91 68
-1.25663 0.783687 2.08656 114 80 68
-1.24606 0.79497 2.11875 116 92 90
-1.21567 0.795792 2.12194 119 95 85
-1.19453 0.801862 2.1397 127 92 90
-1.15489 0.797435 2.12833 110 84 85
-1.13331 0.803517 2.14613 119 91 87
-1.1027 0.804345 2.14935 122 95 88
-1.08098 0.810775 2.16814 112 86 85
-1.04148 0.806 2.15578 91 71 47
-0.881082 0.720292 1.91818 35 28 20
-0.854079 0.721022 1.92101 30 26 15
-0.827075 0.721752 1.92385 37 26 30
-0.811878 0.731099 1.9507 37 30 20
-0.778793 0.727526 1.94155 33 31 19
-0.763127 0.737228 1.96941 34 23 19
-0.729794 0.733318 1.95932 40 32 29
-0.708019 0.738718 1.9752 40 32 30
-0.680465 0.739463 1.97809 33 25 23
-0.652911 0.740208 1.98099 29 20 23
-0.630008 0.745295 1.99602 34 26 24
-0.607091 0.750726 2.01202 39 29 30
-0.583788 0.756168 2.02807 34 22 22
-0.55567 0.756928 2.03102 31 28 23
-0.527552 0.757688 2.03397 29 17 17
-0.499433 0.758448 2.03693 42 32 23
-0.471315 0.759209 2.03988 34 25 20
-0.443197 0.759969 2.04283 33 22 16
-0.418545 0.765447 2.05902 36 28 26
-0.390234 0.766212 2.06199 30 24 26
-0.368086 0.776434 2.09151 39 31 29
-0.33939 0.77721 2.09453 35 23 23
-0.347284 0.842295 2.27822 57 43 32
-0.319013 0.848902 2.2977 70 45 40
-0.284662 0.843988 2.2848 75 56 42
-0.25335 0.844835 2.28809 72 53 46
-0.222039 0.845682 2.29138 70 52 48
-0.190728 0.846528 2.29466 79 59 50
-0.159416 0.847375 2.29795 72 55 48
-0.128105 0.848221 2.30124 83 63 54
-0.0981957 0.854872 2.32089 78 63 56
-0.0654823 0.849914 2.30782 95 75 64
-0.034171 0.850761 2.31111 91 71 60
-0.00285966 0.851607 2.3144 94 73 54
0.0284517 0.852454 2.31769 98 68 58
0.059763 0.8533 2.32097 89 70 64
0.0910743 0.854147 2.32426 93 70 64
0.122386 0.854993 2.32755 82 60 49
0.153227 0.849984 2.31428 88 64 60
0.185008 0.856686 2.33413 69 48 43
0.215382 0.851665 2.32081 52 35 27
0.253062 0.750954 2.0373 27 22 29
0.272929 0.726059 1.96752 33 26 33
0.278856 0.66367 1.79138 45 36 27
0.297625 0.651117 1.75645 50 38 40
0.316725 0.642011 1.73126 51 39 43
0.333994 0.630449 1.69909 54 39 42
0.349143 0.616424 1.65989 46 35 31
0.364926 0.605853 1.63047 47 38 43
0.374431 0.585489 1.57319 82 73 56
0.377739 0.557397 1.49391 154 133 114
0.391348 0.549173 1.47106 159 143 109
0.404503 0.54128 1.44913 165 149 123
0.416998 0.53337 1.42713 165 149 133
0.429355 0.526143 1.40706 173 160 128
0.442483 0.520655 1.39193 176 160 137
0.455433 0.515506 1.37775 179 163 140
0.471274 0.514216 1.37456 177 156 139
0.48856 0.514683 1.37638 177 157 124
0.50056 0.509509 1.3621 169 151 127
0.512464 0.504676 1.34878 181 157 131
0.527534 0.503365 1.34551 175 151 139
0.540608 0.500281 1.33717 180 156 130
0.557262 0.500732 1.33892 174 155 123
0.573915 0.501182 1.34067 168 145 114
0.590569 0.501632 1.34242 163 138 116
0.61149 0.505635 1.35433 165 146 114
-1.287 0.812769 2.07971 107 79 57
-1.24714 0.808128 2.06839 107 89 75
-1.21741 0.808932 2.07151 113 85 73
-1.18768 0.809736 2.07463 122 89 80
-1.1672 0.816008 2.09229 115 88 79
-1.13725 0.816818 2.09544 122 99 81
-1.11612 0.823108 2.11317 118 88 77
-1.08595 0.823923 2.11634 115 89 74
-1.05578 0.824739 2.11951 106 86 79
-1.02561 0.825555 2.12268 111 89 75
-0.901282 0.761006 1.95153 25 21 22
-0.866983 0.756929 1.94156 30 25 21
-0.833537 0.753187 1.93247 35 21 20
-0.81226 0.758409 1.94731 33 32 30
-0.796793 0.768477 1.97511 36 22 19
-0.76906 0.769227 1.97802 32 25 19
-0.741327 0.769977 1.98093 29 22 14
-0.713594 0.770727 1.98385 28 20 17
-0.685861 0.771476 1.98676 30 22 11
-0.658129 0.772226 1.98967 31 23 20
-0.630396 0.772976 1.99259 33 24 19
-0.607481 0.778599 2.00857 29 21 18
-0.584181 0.784233 2.02459 36 31 25
-0.556063 0.784993 2.02754 31 21 20
-0.532185 0.790643 2.04362 33 24 25
-0.507922 0.796303 2.05974 31 26 23
-0.475563 0.792174 2.04957 33 27 27
-0.454577 0.802749 2.07892 33 22 16
-0.418941 0.793704 2.05551 33 23 22
-0.393907 0.799385 2.07172 38 34 31
-0.365404 0.800156 2.07471 30 22 19
-0.342889 0.81113 2.10519 34 25 20
-0.337891 0.855585 2.22593 60 47 39
-0.307281 0.856413 2.22915 72 49 43
-0.276672 0.85724 2.23236 71 52 37
-0.248638 0.864074 2.25179 84 60 48
-0.213249 0.853236 2.22351 68 46 32
-0.180877 0.848392 2.2114 80 58 44
-0.145529 0.832549 2.16955 43 33 24
-0.113114 0.822703 2.14387 34 25 18
-0.0890473 0.845157 2.20553 20 9 5
-0.0635773 0.869077 2.27123 72 53 47
-0.032734 0.869911 2.27447 85 63 52
-0.0018906 0.870745 2.2777 98 78 69
0.0289528 0.871579 2.28094 98 75 61
0.0600316 0.866343 2.26773 101 82 68
0.090641 0.867171 2.27094 98 77 60
0.12125 0.867998 2.27416 90 69 52
0.15186 0.868826 2.27737 84 62 49
0.18317 0.875748 2.29714 79 61 51
0.214013 0.876582 2.30038 70 54 54
0.242588 0.86556 2.27139 39 28 26
0.251695 0.773591 2.02222 31 27 28
0.272566 0.751995 1.9643 36 31 35
0.29228 0.732155 1.91111 36 27 30
0.297304 0.674031 1.75361 49 38 36
0.315172 0.66129 1.71961 55 46 49
0.332475 0.649605 1.68847 48 42 42
0.348843 0.637895 1.65722 57 43 43
0.366062 0.629783 1.63577 56 48 37
0.375688 0.608598 1.57861 57 44 38
0.387171 0.593539 1.53812 89 70 64
0.389765 0.56573 1.46278 143 126 106
0.401439 0.555323 1.43492 162 146 121
0.41402 0.547443 1.41394 166 148 126
0.425969 0.539545 1.3929 170 151 121
0.437835 0.53236 1.37378 174 150 122
0.452012 0.528812 1.36461 176 158 134
0.464675 0.523793 1.3514 177 161 135
0.478508 0.520592 1.34315 175 155 122
0.492066 0.517385 1.33488 173 157 124
0.508788 0.517837 1.33664 177 157 133
0.523722 0.516453 1.33336 180 158 135
0.53666 0.513229 1.32502 178 158 134
0.551635 0.512204 1.32272 174 153 122
0.564105 0.508967 1.31433 172 149 117
0.580428 0.509408 1.31605 172 144 122
0.598884 0.511694 1.32283 172 143 125
-1.25828 0.826376 2.03454 79 68 64
-1.21967 0.821852 2.02408 99 76 68
-1.19965 0.827961 2.0407 108 91 71
-1.16145 0.823426 2.0302 113 90 74
-1.14102 0.829546 2.04686 111 85 72
-1.12017 0.835677 2.06357 121 93 79
-1.09065 0.836475 2.06667 110 89 70
-1.06113 0.837273 2.06977 105 82 66
-1.0316 0.838072 2.07287 120 96 86
-1.00208 0.83887 2.07597 115 89 72
-0.915053 0.798168 1.97285 31 25 29
-0.874114 0.789253 1.95101 32 25 19
-0.840004 0.784979 1.94105 30 26 17
-0.819006 0.790743 1.9568 38 29 24
-0.797181 0.796158 1.97168 34 26 15
-0.769448 0.796908 1.97459 37 34 27
-0.741715 0.797658 1.9775 39 27 29
-0.719574 0.803452 1.99338 41 28 37
-0.691648 0.804207 1.99631 41 26 31
-0.663723 0.804962 1.99924 38 29 24
-0.635797 0.805717 2.00218 31 27 16
-0.607872 0.806472 2.00511 34 27 17
-0.589203 0.81737 2.03417 36 26 24
-0.565328 0.823211 2.05023 35 23 23
-0.536824 0.823982 2.05322 32 25 9
-0.50832 0.824753 2.05621 37 26 22
-0.483674 0.830615 2.07235 34 26 23
-0.454978 0.831391 2.07536 29 21 10
-0.426282 0.832167 2.07838 29 18 22
-0.401099 0.838415 2.09554 25 20 17
-0.368889 0.833719 2.08441 30 23 17
-0.352596 0.856429 2.14419 42 30 32
-0.329056 0.868571 2.17666 66 47 40
-0.299107 0.869381 2.17981 78 56 45
-0.269159 0.870191 2.18295 98 74 64
-0.23921 0.871001 2.1861 94 70 60
-0.207055 0.865931 2.17399 108 77 48
-0.173601 0.855701 2.14847 54 40 11
-0.14263 0.850971 2.13721 36 33 24
-0.113521 0.851758 2.14026 41 37 26
-0.0881403 0.869146 2.18648 50 34 19
-0.0595173 0.875859 2.20497 90 62 48
-0.0278532 0.865209 2.17829 94 66 45
0.000380242 0.877478 2.21126 90 65 60
0.0298841 0.884214 2.22985 99 75 65
0.0600531 0.88503 2.23302 94 67 60
0.0902266 0.879907 2.2207 94 65 61
0.120175 0.880717 2.22385 83 61 48
0.150124 0.881526 2.22699 87 68 53
0.180729 0.888292 2.24569 99 72 61
0.210898 0.889108 2.24886 71 50 47
0.23997 0.883955 2.23643 59 46 30
0.267368 0.87319 2.2093 23 18 12
0.271049 0.773446 1.94935 33 33 23
0.291927 0.757308 1.90799 37 27 25
0.309094 0.733647 1.84688 38 29 34
0.314858 0.683695 1.71683 46 38 36
0.330808 0.668166 1.67689 54 49 45
0.347223 0.656362 1.64668 59 48 46
0.364337 0.647917 1.62525 49 46 27
0.37675 0.63155 1.583 51 40 34
0.388337 0.615903 1.5426 50 39 45
0.397861 0.598716 1.49812 85 70 63
0.399781 0.571301 1.4267 146 127 110
0.412285 0.563103 1.40575 154 140 113
0.42311 0.553374 1.38076 165 147 127
0.434567 0.545518 1.36067 170 153 135
0.44744 0.540299 1.34751 179 156 138
0.4599 0.535068 1.3343 145 83 72
0.473528 0.531725 1.32605 138 43 47
0.486882 0.528374 1.31778 136 37 40
0.502022 0.527299 1.31549 162 125 109
0.518483 0.527744 1.31722 166 140 123
0.531231 0.524377 1.30888 182 161 130
0.545628 0.52291 1.30556 178 156 133
0.560287 0.521822 1.30323 172 151 120
0.574424 0.520348 1.29987 170 154 120
0.592686 0.522698 1.30663 171 144 114
-1.23018 0.839086 1.99043 64 57 39
-1.21078 0.845384 2.00696 78 60 60
-1.17279 0.840638 1.99646 104 82 69
-1.15298 0.846947 2.01303 103 76 59
-1.12407 0.847729 2.01607 102 76 53
-1.0867 0.842965 2.0055 116 95 78
-1.07453 0.854842 2.03577 122 93 87
-1.04542 0.855629 2.03882 111 88 74
-1.00846 0.850854 2.02821 112 89 81
-0.987204 0.857203 2.04494 113 87 72
-0.936273 0.841644 2.00778 43 30 24
-0.880767 0.821589 1.9595 38 31 25
-0.853034 0.822339 1.96242 37 29 26
-0.825301 0.823089 1.96533 34 30 21
-0.803741 0.829061 1.98112 32 21 19
-0.775815 0.829816 1.98405 35 26 29
-0.753677 0.835803 1.9999 33 23 31
-0.725559 0.836563 2.00286 29 22 16
-0.702842 0.842566 2.01877 36 28 25
-0.674531 0.843331 2.02174 29 26 19
-0.64622 0.844097 2.02472 28 23 17
-0.622733 0.85012 2.04071 27 19 16
-0.598861 0.856154 2.05674 37 27 25
-0.570164 0.85693 2.05976 34 23 19
-0.546017 0.863357 2.07678 35 26 29
-0.517114 0.864138 2.07982 34 23 27
-0.492348 0.870581 2.09691 25 19 19
-0.459309 0.865701 2.08589 33 22 20
-0.430406 0.866482 2.08893 44 33 31
-0.401503 0.867264 2.09196 41 33 22
-0.3726 0.868045 2.095 42 31 25
-0.349905 0.880206 2.12637 83 56 49
-0.32059 0.880998 2.12945 97 63 51
-0.291274 0.881791 2.13252 103 77 64
-0.261958 0.882584 2.1356 106 78 66
-0.230365 0.877664 2.12443 99 75 63
-0.201255 0.878451 2.12749 68 49 42
-0.172146 0.879238 2.13054 44 34 32
-0.143037 0.880025 2.1336 52 40 26
-0.112476 0.875078 2.12232 30 28 16
-0.0860644 0.887339 2.15408 63 42 39
-0.0567487 0.888131 2.15716 123 89 54
-0.0266002 0.883173 2.14583 88 61 40
0.00250905 0.88396 2.14889 103 79 55
0.0316183 0.884747 2.15195 64 45 31
0.0603004 0.89707 2.18394 106 84 71
0.0898225 0.897868 2.18704 97 70 63
0.119145 0.892887 2.17563 91 70 53
0.148461 0.893679 2.17871 93 69 59
0.178389 0.900262 2.19635 95 72 56
0.20873 0.906856 2.21402 90 68 54
0.237433 0.901858 2.20255 69 54 51
0.265724 0.89685 2.19103 50 40 30
0.291575 0.782461 1.90487 35 30 27
0.308755 0.757907 1.84387 31 26 20
0.313447 0.702992 1.70621 42 39 30
0.329295 0.686869 1.66633 53 41 45
0.345606 0.674609 1.63616 57 47 45
0.364043 0.668948 1.62264 58 47 43
0.37781 0.654694 1.58737 54 40 40
0.390943 0.641193 1.55397 51 40 38
0.398911 0.620238 1.50167 54 42 30
0.406532 0.601199 1.45417 103 86 76
0.412035 0.580947 1.40354 145 129 103
0.419994 0.566536 1.36766 164 145 131
0.430205 0.556805 1.34362 164 146 124
0.442874 0.551374 1.33046 143 98 77
0.45513 0.545931 1.31725 122 42 33
0.470135 0.544412 1.314 147 33 41
0.482033 0.539345 1.30172 133 27 31
0.496638 0.537816 1.29842 145 43 41
0.511463 0.536677 1.29612 132 93 88
0.524322 0.53356 1.28877 177 157 130
0.536933 0.530437 1.2814 174 149 127
0.552885 0.530868 1.28308 175 154 127
0.566774 0.529319 1.2797 177 151 134
0.582657 0.529749 1.28137 175 147 125
-1.16344 0.810544 1.8512 13 12 7
-1.17798 0.836063 1.91236 49 41 39
-1.17584 0.852465 1.95212 81 57 53
-1.14773 0.853225 1.95508 81 55 54
-1.11961 0.853986 1.95803 113 83 81
-1.09959 0.860108 1.97363 123 89 88
-1.07128 0.860873 1.97661 119 98 77
-1.04297 0.861639 1.97958 118 88 80
-1.01466 0.862404 1.98256 117 94 78
-0.986348 0.863169 1.98553 121 91 81
-0.965175 0.869323 2.00126 121 93 89
-0.929726 0.8647 1.99148 104 76 64
-0.901415 0.865466 1.99445 58 37 34
-0.866543 0.860827 1.98461 31 23 21
-0.844793 0.866996 2.0004 31 22 17
-0.822657 0.873176 2.01622 35 31 22
-0.788171 0.868527 2.00634 30 21 26
-0.75986 0.869293 2.00932 45 28 18
-0.737146 0.875488 2.02521 55 42 33
-0.708643 0.876258 2.0282 61 44 37
-0.680139 0.877029 2.03119 65 52 44
-0.651636 0.8778 2.03419 76 65 47
-0.623132 0.87857 2.03718 77 62 55
-0.599262 0.884797 2.05319 79 61 51
-0.570566 0.885573 2.0562 97 75 62
-0.541869 0.886348 2.05922 95 76 62
-0.513173 0.887124 2.06223 98 77 60
-0.484477 0.8879 2.06525 100 81 67
-0.45578 0.888676 2.06826 109 81 67
-0.427084 0.889452 2.07127 105 79 64
-0.401907 0.896112 2.08838 109 86 68
-0.369691 0.891003 2.0773 120 91 75
-0.344102 0.897675 2.09446 117 89 77
-0.315199 0.898456 2.09749 116 84 73
-0.286296 0.899238 2.10053 107 80 63
-0.254906 0.894107 2.08936 111 82 66
-0.22621 0.894882 2.09237 108 78 68
-0.197514 0.895658 2.09539 105 79 66
-0.168817 0.896434 2.0984 102 81 64
-0.141782 0.903145 2.11571 93 69 57
-0.11288 0.903926 2.11874 86 60 61
-0.0839769 0.904707 2.12178 72 54 44
-0.0550741 0.905489 2.12481 68 47 44
-0.0261714 0.90627 2.12785 60 47 39
0.00336072 0.901089 2.11648 57 44 36
0.0312113 0.913801 2.14834 39 23 23
0.0603205 0.914588 2.1514 97 79 67
0.0894397 0.909396 2.13999 96 70 71
0.118342 0.910177 2.14303 97 69 68
0.147245 0.910959 2.14606 103 80 72
0.176148 0.91174 2.1491 85 69 56
0.205867 0.918523 2.16669 78 60 56
0.233953 0.913303 2.15517 75 56 49
0.262856 0.914084 2.15821 63 46 39
0.290324 0.908847 2.14662 34 25 26
0.291222 0.807614 1.90175 27 21 25
0.307183 0.778147 1.83109 33 24 25
0.325735 0.762304 1.7935 35 30 26
0.327785 0.705353 1.6558 55 48 42
0.343992 0.692635 1.62567 55 46 49
0.361074 0.683928 1.60529 50 40 39
0.377523 0.675204 1.58483 51 42 35
0.392103 0.664037 1.55839 56 40 40
0.401715 0.645162 1.51311 57 43 42
0.410471 0.627061 1.46966 49 44 41
0.420432 0.612979 1.43599 101 89 63
0.418447 0.58183 1.36056 147 132 109
0.429967 0.57377 1.34151 162 145 125
0.441198 0.566101 1.3234 117 62 59
0.453388 0.560451 1.31022 115 22 32
0.465481 0.555197 1.29798 151 54 61
0.478838 0.55197 1.29071 137 47 49
0.490229 0.546697 1.2784 86 32 32
0.503021 0.543455 1.27107 69 58 40
0.518904 0.543884 1.27273 146 129 103
0.531324 0.540632 1.26536 172 150 127
0.545489 0.53942 1.26299 179 159 126
0.559544 0.538206 1.26061 170 149 122
0.575193 0.538629 1.26225 173 147 120
-1.16381 0.837153 1.84789 17 15 16
-1.153 0.847755 1.8731 35 30 26
-1.15081 0.86431 1.91184 107 83 71
-1.12326 0.865055 1.91473 110 84 69
-1.0957 0.8658 1.91763 115 89 76
-1.07567 0.871702 1.93225 121 98 90
-1.04794 0.872452 1.93516 110 86 58
-1.02021 0.873202 1.93807 115 92 76
-0.992474 0.873952 1.94099 115 86 72
-0.964741 0.874701 1.9439 122 89 70
-0.937009 0.875451 1.94681 125 101 77
-0.909276 0.876201 1.94972 123 91 76
-0.888299 0.882542 1.96541 111 87 75
-0.860373 0.883297 1.96834 112 85 76
-0.838818 0.889653 1.98408 117 96 77
-0.804522 0.884807 1.97421 109 85 73
-0.776596 0.885562 1.97714 122 96 81
-0.754463 0.891933 1.99294 120 98 87
-0.720745 0.887072 1.98301 115 95 86
-0.69282 0.887827 1.98594 123 101 80
-0.664894 0.888582 1.98887 112 89 75
-0.636968 0.889336 1.9918 125 97 85
-0.609043 0.890091 1.99474 120 91 83
-0.585754 0.896495 2.01066 116 89 78
-0.557636 0.897255 2.01362 120 90 82
-0.529517 0.898015 2.01657 117 94 80
-0.501399 0.898775 2.01952 122 92 90
-0.473281 0.899535 2.02248 116 84 63
-0.445162 0.900295 2.02543 120 90 79
-0.413564 0.895376 2.01527 114 85 81
-0.388926 0.901816 2.03134 117 86 81
-0.360808 0.902576 2.03429 123 93 82
-0.335592 0.909031 2.05042 113 91 68
-0.304571 0.904096 2.04019 121 94 73
-0.276453 0.904857 2.04315 113 81 66
-0.250659 0.911327 2.05934 110 81 73
-0.220216 0.906377 2.04905 111 85 60
-0.194037 0.912858 2.06528 105 78 67
-0.16398 0.907897 2.05496 110 87 69
-0.135862 0.908658 2.05791 109 81 60
-0.107743 0.909418 2.06087 113 85 73
-0.0819613 0.921662 2.09053 102 78 66
-0.0524823 0.916685 2.08015 101 73 62
-0.0249541 0.923203 2.09652 101 74 65
0.00354955 0.923974 2.09951 97 72 65
0.0324506 0.918981 2.08907 108 85 69
0.0607615 0.919747 2.09204 107 75 60
0.0890725 0.920512 2.09502 106 84 63
0.117383 0.921278 2.09799 106 78 75
0.146068 0.927827 2.11448 101 74 65
0.174571 0.928597 2.11748 96 72 62
0.203075 0.929368 2.12047 86 65 60
0.231579 0.930139 2.12346 88 65 51
0.260082 0.930909 2.12646 82 59 53
0.285912 0.920061 2.10221 68 49 43
0.308075 0.806427 1.83786 33 27 29
0.325405 0.785864 1.79058 40 36 37
0.341934 0.766928 1.74706 43 36 28
0.342382 0.710442 1.61521 51 39 41
0.359358 0.701416 1.59485 52 40 40
0.37455 0.689868 1.56853 54 41 50
0.390383 0.681223 1.54901 55 44 42
0.402758 0.667124 1.51661 53 38 33
0.413238 0.651324 1.48016 65 54 36
0.421657 0.633819 1.43965 54 39 42
0.423679 0.607893 1.37921 119 101 81
0.42973 0.590736 1.33941 100 81 74
0.438082 0.57859 1.3114 121 64 71
0.451949 0.575253 1.30419 120 31 23
0.462412 0.567701 1.287 158 100 98
0.473999 0.56224 1.27474 176 127 131
0.485544 0.557191 1.26344 123 79 92
0.49673 0.552133 1.25209 41 31 22
0.512379 0.552556 1.25374 53 45 43
0.524567 0.549174 1.24635 172 148 120
0.538499 0.547901 1.24397 177 152 130
0.552321 0.546625 1.24157 185 156 140
0.563903 0.543227 1.23412 176 151 131
-1.18881 0.87929 1.87853 10 11 3
-1.16163 0.880024 1.88138 89 75 75
-1.14251 0.886081 1.89589 110 82 60
-1.10726 0.881494 1.88709 109 87 73
-1.08008 0.882229 1.88995 120 98 84
-1.0529 0.882964 1.8928 123 97 74
-1.03306 0.88904 1.90738 116 92 82
-0.998532 0.884434 1.89851 128 98 74
-0.978341 0.890519 1.91313 132 102 92
-0.95098 0.891259 1.916 116 91 71
-0.923618 0.891999 1.91888 132 100 89
-0.896257 0.892739 1.92175 125 97 83
-0.868896 0.893478 1.92462 123 91 70
-0.835438 0.888843 1.91564 121 93 69
-0.820547 0.900751 1.94316 131 97 87
-0.798732 0.906881 1.95794 124 96 85
-0.765439 0.902241 1.94895 123 97 74
-0.732089 0.897177 1.93899 123 98 78
-0.710331 0.903731 1.95473 133 103 92
-0.682777 0.904476 1.95763 121 93 81
-0.655223 0.905221 1.96052 130 94 82
-0.627669 0.905966 1.96342 125 96 80
-0.595283 0.900876 1.95336 124 98 85
-0.572561 0.907456 1.9692 118 89 73
-0.549136 0.913629 1.98416 121 88 81
-0.517453 0.908946 1.97499 118 95 81
-0.489899 0.909691 1.97789 121 93 72
-0.465937 0.915878 1.9929 122 90 67
-0.434791 0.91118 1.98367 118 92 79
-0.407237 0.911925 1.98657 121 91 81
-0.379683 0.91267 1.98946 116 89 72
-0.352129 0.913415 1.99236 121 89 64
-0.327273 0.919627 2.00746 122 90 75
-0.29954 0.920377 2.01037 121 92 76
-0.269467 0.91565 2.00104 110 82 70
-0.241913 0.916395 2.00393 112 83 75
-0.218475 0.928534 2.03234 113 80 75
-0.188608 0.923376 2.02202 113 82 61
-0.159251 0.91863 2.01261 109 78 60
-0.131697 0.919375 2.01551 111 85 62
-0.105409 0.925625 2.03076 107 81 56
-0.0788474 0.932309 2.04701 107 79 67
-0.0499437 0.927125 2.03659 99 81 57
-0.0229963 0.933819 2.05287 105 84 63
0.00552207 0.928624 2.04241 107 83 71
0.0328549 0.935329 2.05874 113 86 79
0.0607805 0.936084 2.06167 105 79 78
0.0887208 0.930874 2.05115 94 75 60
0.116454 0.931623 2.05407 94 63 58
0.144187 0.932373 2.05698 96 73 67
0.172483 0.939104 2.07341 102 74 71
0.200408 0.939859 2.07634 94 71 53
0.228334 0.940614 2.07927 86 66 55
0.25626 0.941369 2.0822 86 68 58
0.282851 0.936122 2.07154 74 59 52
0.309166 0.931294 2.06181 42 27 24
0.326441 0.813721 1.79741 37 37 29
0.341613 0.789842 1.74422 32 29 24
0.337164 0.718557 1.58325 50 41 42
0.357823 0.719116 1.58542 54 44 42
0.374265 0.710185 1.56601 56 41 44
0.388664 0.698217 1.53965 58 49 44
0.40117 0.684066 1.50828 57 46 50
0.414369 0.672917 1.48372 56 41 34
0.421399 0.652227 1.43737 55 43 27
0.430726 0.637564 1.40471 64 49 46
0.43525 0.616806 1.35809 114 98 73
0.43929 0.597313 1.31431 125 72 68
0.447193 0.585169 1.28726 115 23 38
0.457768 0.577784 1.27108 119 31 19
0.470812 0.574302 1.2638 168 111 104
0.482235 0.569071 1.2525 181 112 117
0.491873 0.562087 1.23718 112 67 74
0.505861 0.560761 1.2348 43 32 28
0.521276 0.561177 1.23642 164 144 111
0.531516 0.555914 1.225 177 157 133
0.545104 0.554577 1.22258 168 147 130
0.558582 0.553237 1.22016 175 149 112
-1.18076 0.90093 1.86358 106 92 63
-1.14615 0.896587 1.8557 107 79 58
-1.11931 0.897313 1.85852 108 86 75
-1.08458 0.892533 1.84969 117 102 63
-1.05792 0.893254 1.85249 130 104 79
-1.03126 0.893975 1.85529 121 95 78
-1.0046 0.894696 1.85809 116 98 78
-0.985117 0.900941 1.87261 128 99 81
-0.958279 0.901667 1.87543 130 102 88
-0.931441 0.902392 1.87825 119 98 79
-0.904603 0.903118 1.88107 121 93 79
-0.877764 0.903843 1.88389 127 99 77
-0.850926 0.904569 1.88671 127 98 92
-0.824088 0.905294 1.88953 122 95 74
-0.802715 0.911151 1.90328 124 94 83
-0.775711 0.911881 1.90612 124 95 89
-0.748708 0.912611 1.90896 132 106 93
-0.721704 0.913341 1.91179 124 102 79
-0.694701 0.914071 1.91463 118 88 77
-0.667697 0.914801 1.91746 120 87 80
-0.640694 0.915531 1.9203 125 92 83
-0.613691 0.916261 1.92314 124 98 85
-0.586687 0.916991 1.92597 112 90 79
-0.563994 0.923323 1.94083 116 94 70
-0.536812 0.924058 1.94368 114 87 70
-0.509629 0.924793 1.94654 120 95 75
-0.482447 0.925528 1.94939 124 92 69
-0.455265 0.926263 1.95225 122 94 80
-0.424666 0.921372 1.94299 127 96 78
-0.397663 0.922102 1.94583 121 94 83
-0.373717 0.928467 1.96081 129 101 77
-0.346535 0.929202 1.96367 115 90 70
-0.319353 0.929937 1.96652 118 96 72
-0.29217 0.930672 1.96938 120 94 79
-0.264988 0.931407 1.97223 117 90 69
-0.239969 0.937802 1.98733 116 86 75
-0.208639 0.927212 1.96568 106 80 57
-0.181636 0.927942 1.96852 110 83 64
-0.156259 0.934346 1.98365 115 89 74
-0.130524 0.940761 1.99883 109 86 72
-0.101894 0.935816 1.98936 110 81 67
-0.0769747 0.948367 2.01789 97 75 54
-0.0484399 0.94298 2.00745 103 74 60
-0.0210786 0.94372 2.01032 105 80 58
0.00568725 0.950602 2.02657 108 78 76
0.033644 0.945199 2.01607 102 74 53
0.0612003 0.940226 2.00649 107 77 66
0.0883827 0.940961 2.00935 108 80 66
0.115728 0.947418 2.02469 101 74 65
0.143089 0.948158 2.02757 96 69 58
0.17045 0.948898 2.03044 97 70 61
0.197812 0.949637 2.03331 102 74 71
0.225173 0.950377 2.03619 90 68 55
0.251477 0.94537 2.02648 98 69 51
0.278659 0.946105 2.02933 79 54 49
0.305842 0.94684 2.03219 64 48 35
0.328364 0.930733 1.9981 37 27 25
0.326109 0.837418 1.79447 36 30 34
0.342643 0.816751 1.75015 41 37 26
0.356873 0.793383 1.69984 36 33 26
0.357534 0.739735 1.58287 55 44 40
0.372449 0.726942 1.55565 59 51 38
0.386949 0.715018 1.53031 54 48 50
0.400897 0.703518 1.50587 54 46 33
0.412706 0.689321 1.47545 55 42 33
0.424099 0.675993 1.44691 51 39 39
0.433338 0.660407 1.41334 57 37 39
0.439393 0.641217 1.37176 70 62 43
0.443374 0.62065 1.32709 84 24 24
0.449981 0.605873 1.29516 113 27 28
0.457545 0.593761 1.26909 124 28 32
0.467628 0.586116 1.25288 136 43 54
0.477559 0.578906 1.23762 171 100 108
0.490231 0.57573 1.23127 166 113 119
0.502312 0.572097 1.22391 149 135 109
0.511457 0.565307 1.20952 170 149 122
0.526528 0.565714 1.2111 174 156 118
0.539952 0.564317 1.20867 172 151 122
0.553266 0.562918 1.20623 178 154 130
-1.16493 0.91698 1.83799 107 80 53
-1.13827 0.917701 1.84079 122 97 67
-1.09609 0.907501 1.82128 115 96 54
-1.06249 0.902966 1.81332 125 94 76
-1.04346 0.908924 1.82681 118 92 69
-1.02468 0.915329 1.84123 123 92 97
-0.990833 0.910347 1.83234 130 94 82
-0.964518 0.911058 1.8351 125 95 84
-0.938203 0.91177 1.83786 124 98 83
-0.911887 0.912481 1.84063 124 94 86
-0.885572 0.913193 1.84339 128 95 78
-0.859257 0.913904 1.84616 125 92 77
-0.832942 0.914616 1.84892 116 94 71
-0.806626 0.915327 1.85168 136 98 95
-0.786234 0.921775 1.86628 125 98 77
-0.75974 0.922492 1.86906 131 102 86
-0.733246 0.923208 1.87184 123 93 85
-0.706752 0.923924 1.87462 125 96 80
-0.680257 0.92464 1.87741 126 93 78
-0.653763 0.925357 1.88019 125 88 80
-0.627269 0.926073 1.88297 115 89 76
-0.600775 0.926789 1.88576 119 83 71
-0.574281 0.927506 1.88854 127 92 73
-0.551767 0.933558 1.9024 123 94 80
-0.525108 0.934278 1.9052 118 88 77
-0.498449 0.934999 1.908 120 91 87
-0.471789 0.93572 1.9108 127 95 80
-0.44181 0.931087 1.90245 129 101 90
-0.418471 0.937161 1.9164 121 97 69
-0.388821 0.93252 1.90802 125 95 85
-0.362327 0.933236 1.9108 119 87 72
-0.335833 0.933952 1.91358 118 87 69
-0.314536 0.945868 1.93976 123 93 82
-0.287697 0.946594 1.94258 122 92 81
-0.260859 0.94732 1.9454 124 93 75
-0.231855 0.942207 1.936 123 85 72
-0.207183 0.948771 1.95104 122 85 77
-0.178536 0.943648 1.9416 117 87 77
-0.151877 0.944369 1.9444 121 92 74
-0.125218 0.94509 1.9472 108 82 65
-0.0998294 0.951673 1.96231 110 79 58
-0.0729911 0.952399 1.96513 112 84 72
-0.0461529 0.953124 1.96795 101 70 67
-0.0199924 0.959275 1.98219 103 78 71
0.00752371 0.954575 1.97359 109 80 76
0.034362 0.955301 1.97641 102 78 68
0.0612003 0.956027 1.97923 107 80 63
0.0880385 0.956752 1.98204 102 73 65
0.114877 0.957478 1.98486 101 80 63
0.141715 0.958203 1.98768 90 73 53
0.169032 0.964385 2.00204 97 75 62
0.195392 0.959655 1.99332 105 76 70
0.22223 0.96038 1.99614 91 69 55
0.249068 0.961106 1.99896 89 66 52
0.275907 0.961831 2.00178 83 59 59
0.301332 0.956622 1.992 78 62 49
0.326522 0.951859 1.98315 49 31 27
0.351246 0.946631 1.9733 26 24 9
0.339471 0.831093 1.7288 42 36 40
0.35656 0.815678 1.69708 50 38 40
0.35192 0.746603 1.55102 42 32 33
0.369488 0.740727 1.53945 58 46 46
0.385236 0.731627 1.521 57 44 35
0.399093 0.719754 1.49659 51 47 35
0.41244 0.70832 1.4731 64 49 44
0.425317 0.697328 1.4505 66 50 53
0.434645 0.68125 1.41701 57 43 32
0.441886 0.663301 1.37946 60 48 50
0.44889 0.646706 1.34476 58 36 25
0.453971 0.628699 1.30698 105 35 35
0.457321 0.609737 1.26711 125 29 40
0.466092 0.599995 1.24696 132 26 36
0.475971 0.59255 1.23172 141 64 80
0.486807 0.586946 1.22041 161 103 115
0.497656 0.581796 1.21006 148 131 103
0.506639 0.574781 1.19568 162 144 122
0.519954 0.573327 1.19324 168 147 120
0.528633 0.566757 1.17979 165 146 113
0.543277 0.567153 1.18133 177 157 132
-1.14131 0.926946 1.80184 118 88 78
-1.11516 0.927653 1.80459 121 91 80
-1.08156 0.922953 1.79664 118 93 73
-1.04829 0.918244 1.78867 126 100 83
-1.02247 0.918942 1.79138 121 98 90
-0.996648 0.91964 1.79409 132 102 91
-0.970828 0.920338 1.7968 128 100 79
-0.951634 0.926466 1.81029 120 87 78
-0.919189 0.921734 1.80223 127 95 82
-0.893369 0.922433 1.80494 123 100 84
-0.867549 0.923131 1.80765 126 98 86
-0.841729 0.923829 1.81036 136 101 95
-0.821709 0.929978 1.82394 128 103 98
-0.795724 0.930681 1.82667 127 98 80
-0.775209 0.936844 1.84029 125 97 83
-0.743755 0.932086 1.83212 125 103 92
-0.722909 0.938258 1.84579 133 105 93
-0.691785 0.933491 1.83758 128 95 86
-0.6658 0.934193 1.84031 122 89 74
-0.644459 0.940379 1.85403 127 93 83
-0.618309 0.941086 1.85677 117 90 79
-0.587845 0.936301 1.8485 117 83 73
-0.56186 0.937003 1.85123 131 99 84
-0.543842 0.948707 1.87607 124 95 87
-0.513708 0.943914 1.86776 120 86 84
-0.483905 0.939111 1.85942 112 83 69
-0.461408 0.945327 1.87325 123 96 75
-0.43858 0.951553 1.88712 116 89 70
-0.409108 0.946741 1.87874 126 93 84
-0.379965 0.941921 1.87033 129 95 86
-0.35398 0.942624 1.87306 124 90 80
-0.327995 0.943326 1.87579 123 94 78
-0.304507 0.949569 1.88973 127 98 84
-0.278357 0.950276 1.89248 121 93 82
-0.254373 0.956533 1.90647 121 92 76
-0.228058 0.957245 1.90923 119 90 84
-0.199907 0.952397 1.90072 115 86 72
-0.173757 0.953104 1.90346 112 84 72
-0.149112 0.959379 1.91752 118 91 80
-0.121456 0.954518 1.90896 105 78 67
-0.0953061 0.955225 1.9117 112 79 72
-0.0701665 0.961513 1.92582 105 76 68
-0.0438512 0.962225 1.92858 110 80 69
-0.017536 0.962936 1.93134 103 75 72
0.00877934 0.963648 1.93411 110 85 63
0.0350946 0.964359 1.93687 103 79 67
0.0614099 0.96507 1.93964 113 86 77
0.0877252 0.965782 1.9424 110 90 81
0.11404 0.966493 1.94516 101 77 67
0.140356 0.967205 1.94793 105 77 65
0.167187 0.974006 1.96317 105 78 69
0.192986 0.968628 1.95346 110 85 78
0.219302 0.969339 1.95622 107 85 62
0.244645 0.964416 1.94741 100 77 61
0.270796 0.965123 1.95016 100 76 74
0.298247 0.971474 1.96451 82 65 49
0.323096 0.966537 1.95565 55 40 33
0.345982 0.955939 1.93511 41 31 30
0.335109 0.841141 1.69974 34 29 26
0.356248 0.837974 1.69431 39 34 28
0.373976 0.826302 1.67132 41 31 29
0.366533 0.754127 1.52331 53 41 41
0.382092 0.744733 1.50486 53 46 38
0.397292 0.735796 1.48734 51 45 47
0.409153 0.721162 1.45799 63 53 44
0.422102 0.710295 1.43641 55 48 40
0.43595 0.702257 1.42065 61 46 41
0.444923 0.686609 1.38909 64 47 53
0.453249 0.671411 1.35842 55 45 43
0.459762 0.654762 1.32468 58 36 39
0.462766 0.63428 1.28294 99 17 19
0.465872 0.615669 1.24502 126 30 44
0.475755 0.607991 1.22981 158 124 114
0.485169 0.6003 1.21454 156 142 105
0.494485 0.593074 1.20022 159 148 120
0.506431 0.589658 1.19383 146 123 105
0.518156 0.586237 1.18741 154 133 116
0.526783 0.579459 1.17398 166 152 126
0.536696 0.574587 1.1645 164 146 124
-1.14168 0.953047 1.7986 119 96 80
-1.10029 0.942619 1.78005 124 98 71
-1.06018 0.932638 1.76231 125 96 82
-1.028 0.928216 1.75519 125 86 69
-1.00265 0.928902 1.75785 124 96 72
-0.983672 0.934707 1.77034 131 94 88
-0.958169 0.935396 1.77302 130 97 88
-0.932665 0.936086 1.7757 131 103 91
-0.907162 0.936775 1.77838 122 93 75
-0.881659 0.937465 1.78106 130 101 87
-0.856156 0.938154 1.78374 134 101 86
-0.830652 0.938844 1.78642 128 99 93
-0.805149 0.939533 1.78909 123 99 73
-0.779646 0.940223 1.79177 131 98 83
-0.764631 0.951694 1.8153 128 103 81
-0.738811 0.952392 1.81801 125 93 82
-0.708278 0.947925 1.81072 121 93 82
-0.682609 0.948619 1.81342 127 100 73
-0.656941 0.949313 1.81611 123 101 80
-0.631273 0.950007 1.81881 123 90 81
-0.605604 0.950701 1.82151 125 95 84
-0.579936 0.951395 1.8242 125 89 67
-0.554267 0.952089 1.8269 129 89 79
-0.528599 0.952783 1.82959 123 94 80
-0.506433 0.958675 1.84242 118 89 73
-0.477262 0.954171 1.83499 122 92 82
-0.454793 0.960071 1.84784 118 89 59
-0.428973 0.960769 1.85055 125 92 83
-0.403154 0.961467 1.85327 125 94 91
-0.377334 0.962165 1.85598 129 104 82
-0.34892 0.957641 1.84847 128 94 84
-0.323252 0.958335 1.85116 125 90 86
-0.299874 0.964259 1.86411 123 95 71
-0.274054 0.964957 1.86683 120 94 71
-0.248235 0.965655 1.86954 113 82 79
-0.220578 0.961111 1.86195 114 87 76
-0.196595 0.967051 1.87496 96 73 55
-0.167568 0.956771 1.85606 121 86 67
-0.144955 0.968447 1.88039 103 79 69
-0.120479 0.974882 1.89441 100 77 61
-0.0944938 0.975585 1.89714 103 74 66
-0.0685089 0.976287 1.89987 113 86 77
-0.0433715 0.98274 1.91396 115 90 68
-0.0165389 0.977692 1.90533 110 88 75
0.00996335 0.972636 1.89666 110 85 80
0.035431 0.979097 1.91078 115 83 68
0.061603 0.974032 1.90208 107 81 68
0.0874228 0.97473 1.90479 107 84 76
0.113111 0.970132 1.89699 108 84 72
0.13878 0.970826 1.89969 104 80 68
0.164882 0.976824 1.91293 99 71 59
0.190702 0.977522 1.91564 95 74 69
0.216522 0.97822 1.91835 94 76 52
0.242342 0.978918 1.92106 99 76 70
0.268161 0.979616 1.92378 93 67 54
0.293981 0.980314 1.92649 92 67 47
0.319801 0.981012 1.9292 73 51 38
0.344127 0.976378 1.92126 57 43 34
0.366355 0.965913 1.90164 37 23 23
0.355936 0.86027 1.69155 37 28 33
0.372075 0.843867 1.65984 43 32 36
0.384579 0.820631 1.61439 45 35 36
0.380591 0.761347 1.49659 61 47 44
0.394183 0.748725 1.47225 60 49 45
0.407496 0.737057 1.44979 67 51 62
0.421843 0.728785 1.43412 62 49 43
0.435694 0.7205 1.41839 68 54 53
0.446042 0.706828 1.3918 54 48 34
0.457602 0.696556 1.37202 63 51 55
0.461032 0.674037 1.32753 57 49 30
0.468518 0.659806 1.29968 53 35 35
0.475836 0.646533 1.27373 79 33 33
0.475538 0.623432 1.22789 149 134 105
0.484956 0.615508 1.21266 158 142 108
0.494275 0.608062 1.19837 158 141 125
0.504688 0.60257 1.18801 165 151 104
0.513579 0.595594 1.17463 175 154 137
0.522057 0.588607 1.1612 138 122 99
0.531821 0.583578 1.15173 162 143 129
-1.11933 0.962442 1.76441 122 93 79
-1.07906 0.95215 1.74673 126 95 90
-1.0537 0.952835 1.74939 127 99 87
-1.01498 0.942995 1.7325 125 98 91
-0.983403 0.938406 1.72534 119 94 74
-0.964886 0.94435 1.73776 125 99 82
-0.939837 0.945027 1.74039 116 87 79
-0.914788 0.945704 1.74302 124 101 83
-0.889739 0.946381 1.74565 127 95 84
-0.86469 0.947058 1.74828 119 94 87
-0.834017 0.942444 1.74103 139 105 95
-0.814592 0.948413 1.75355 132 95 87
