ply
format ascii 1.0
element vertex 1296
property float x
property float y
property float z
property uchar red
property uchar green
property uchar blue
end_header
-0.386588 -0.121487 1.84315 37 30 22
-0.360302 -0.121886 1.84006 32 21 27
-0.335539 -0.12273 1.85029 36 28 17
-0.310315 -0.123545 1.85946 28 19 22
-0.283685 -0.123949 1.85633 26 20 24
-0.257056 -0.124353 1.8532 30 20 18
-0.23198 -0.125634 1.87553 41 30 24
-0.205635 -0.126501 1.88557 33 28 22
-0.178484 -0.126913 1.88238 36 25 21
-0.151332 -0.127326 1.87919 32 22 21
-0.12418 -0.127738 1.876 39 25 24
-0.097028 -0.12815 1.87281 30 20 19
-0.0696114 -0.129034 1.88273 39 32 26
-0.0418033 -0.12996 1.89362 54 41 33
0.0117061 -0.150311 2.43624 70 53 45
0.0466942 -0.150843 2.43213 68 55 38
0.0816823 -0.151374 2.42802 81 64 56
0.11667 -0.151905 2.42391 83 66 56
0.153921 -0.153262 2.44177 83 64 57
0.186647 -0.152967 2.41568 94 75 69
0.221635 -0.153498 2.41157 90 73 65
0.262963 -0.155709 2.4512 104 85 81
0.298556 -0.156249 2.44701 104 91 74
0.334149 -0.156789 2.44283 119 101 89
0.369742 -0.15733 2.43865 115 100 95
0.405335 -0.15787 2.43447 116 102 91
0.440928 -0.15841 2.43028 108 95 86
0.481732 -0.159857 2.44874 97 81 81
0.506827 -0.158619 2.4003 33 26 33
0.467928 -0.147521 2.1097 32 24 21
0.468404 -0.14339 1.99339 32 28 27
0.457272 -0.138003 1.84812 41 31 29
0.461939 -0.135267 1.76872 45 33 33
0.469716 -0.13319 1.70614 44 40 31
0.48098 -0.131742 1.65933 50 41 36
0.487641 -0.129864 1.60295 101 87 78
0.455307 -0.123544 1.44299 155 136 106
0.468031 -0.122801 1.41521 122 61 43
0.477395 -0.121756 1.38075 78 24 24
0.489375 -0.121074 1.35508 103 79 75
0.504344 -0.120761 1.33816 125 39 26
0.521833 -0.120739 1.32801 127 41 44
0.536073 -0.120415 1.31118 147 90 81
0.553472 -0.120428 1.30206 173 128 123
0.566997 -0.120093 1.28531 174 134 124
0.583902 -0.120098 1.27624 169 152 122
0.607443 -0.120707 1.28055 175 154 125
0.624155 -0.120709 1.27151 170 152 116
0.640675 -0.120708 1.2625 177 156 125
0.657002 -0.120704 1.2535 176 154 130
0.676937 -0.121006 1.25116 153 135 113
0.700767 -0.12162 1.25544 168 147 120
0.716805 -0.121612 1.24647 169 152 122
0.732651 -0.1216 1.23754 170 144 121
0.744121 -0.12127 1.22204 168 108 108
0.759486 -0.121252 1.21316 152 92 100
0.775283 -0.121276 1.20523 137 85 87
0.798584 -0.121845 1.20856 158 80 94
0.84098 -0.123748 1.23896 150 69 84
-1.05652 -0.0927793 2.27584 121 99 88
-1.01859 -0.0929767 2.25417 114 93 76
-1.00109 -0.0939991 2.28655 111 98 89
-0.969818 -0.0944738 2.28287 113 99 72
-0.938542 -0.0949486 2.2792 120 104 81
-0.91953 -0.0960163 2.31241 115 92 78
-0.893833 -0.0968071 2.32762 123 105 83
-0.861828 -0.0972929 2.32386 122 102 93
-0.829823 -0.0977787 2.3201 119 98 81
-0.803136 -0.0985845 2.33519 108 87 70
-0.638499 -0.0906213 1.83986 45 37 35
-0.612709 -0.0910128 1.83683 48 37 33
-0.586918 -0.0914043 1.8338 30 23 17
-0.564012 -0.0920191 1.84326 39 30 23
-0.543496 -0.0928648 1.86515 34 29 25
-0.517211 -0.0932638 1.86206 42 31 27
-0.490925 -0.0936628 1.85898 38 27 21
-0.464639 -0.0940618 1.85589 26 25 21
-0.438353 -0.0944608 1.8528 35 27 24
-0.414121 -0.095118 1.86312 34 26 23
-0.385782 -0.0952588 1.84662 31 22 17
-0.361192 -0.0959214 1.8569 33 24 25
-0.336128 -0.096569 1.86611 32 27 23
-0.310837 -0.0972423 1.8763 33 24 19
-0.285099 -0.0979001 1.88543 30 20 18
-0.25722 -0.0980562 1.87 38 23 20
-0.231955 -0.0989962 1.89235 38 26 28
-0.204803 -0.0994083 1.88916 33 23 13
-0.177651 -0.0998205 1.88597 40 33 23
-0.150765 -0.100518 1.89598 37 27 25
-0.123347 -0.100645 1.87959 36 25 23
-0.0961954 -0.101057 1.8764 30 21 22
-0.0684824 -0.102079 1.90049 33 22 28
-0.0409594 -0.102496 1.89725 67 52 47
0.012779 -0.115399 2.44086 96 76 67
0.0477671 -0.115931 2.43675 111 87 75
0.0827552 -0.116462 2.43264 117 94 86
0.117743 -0.116993 2.42853 117 103 90
0.152731 -0.117524 2.42442 120 106 93
0.187719 -0.118055 2.4203 116 101 98
0.222708 -0.118586 2.41619 119 102 86
0.260875 -0.119655 2.43399 122 104 92
0.296165 -0.120191 2.42984 121 95 96
0.331456 -0.120726 2.4257 127 106 101
0.366747 -0.121262 2.42155 118 98 87
0.402037 -0.121798 2.4174 117 99 95
0.442019 -0.122894 2.43498 100 85 78
0.477612 -0.123435 2.4308 97 79 75
0.513205 -0.123975 2.42662 46 42 33
0.460234 -0.115424 2.08041 30 22 19
0.477899 -0.114602 2.02871 28 24 21
0.462756 -0.108696 1.77224 33 25 23
0.467102 -0.107159 1.69881 52 40 40
0.481752 -0.106624 1.66265 46 35 29
0.48839 -0.105501 1.60617 53 44 35
0.452831 -0.101155 1.43717 108 95 76
0.465784 -0.100795 1.41033 149 131 111
0.471999 -0.0999764 1.36808 162 144 124
0.484141 -0.0996487 1.34336 172 147 125
0.501737 -0.0997377 1.33319 167 137 126
0.516177 -0.099623 1.3163 167 148 118
0.527171 -0.0993002 1.29273 181 161 124
0.544266 -0.0994039 1.28363 178 154 126
0.557942 -0.0992998 1.26785 180 158 134
0.574555 -0.0993962 1.2588 180 161 131
0.590976 -0.0994896 1.24979 162 147 118
0.60369 -0.099371 1.23411 166 147 117
0.62324 -0.0996677 1.23182 164 144 117
0.642789 -0.0999645 1.22952 171 150 129
0.655277 -0.0998646 1.21489 161 145 119
0.667407 -0.0997594 1.20029 160 137 103
0.690023 -0.100236 1.20371 159 140 107
0.71748 -0.100965 1.21467 169 142 113
0.740536 -0.101448 1.21803 179 137 123
0.756413 -0.101556 1.21009 181 130 126
0.767121 -0.101407 1.19465 174 122 109
0.782559 -0.101507 1.18676 165 110 107
0.805669 -0.101992 1.19013 149 106 97
-1.05557 -0.0618043 2.27994 113 89 89
-1.03141 -0.0623161 2.29435 110 88 75
-1.00014 -0.0627909 2.29068 111 93 81
-0.975277 -0.0633133 2.30501 102 84 74
-0.943767 -0.0637916 2.3013 115 95 86
-0.918556 -0.0643279 2.3166 119 102 82
-0.886799 -0.06481 2.31287 116 96 95
-0.860847 -0.0653576 2.32809 115 98 82
-0.828842 -0.0658434 2.32433 117 99 87
-0.802147 -0.0664023 2.33945 113 94 88
-0.618338 -0.0653854 1.86534 36 25 23
-0.592217 -0.0657819 1.86227 30 25 21
-0.566096 -0.0661784 1.8592 35 30 24
-0.54269 -0.0666361 1.86862 38 28 26
-0.516405 -0.0670351 1.86554 36 25 23
-0.490119 -0.0674341 1.86245 37 26 20
-0.466238 -0.0679076 1.87283 36 25 19
-0.441829 -0.0683805 1.88214 35 32 23
-0.413309 -0.068711 1.86661 30 25 21
-0.38857 -0.069189 1.87588 29 22 16
-0.361941 -0.0695932 1.87275 33 24 19
-0.336823 -0.0700855 1.88299 39 29 30
-0.311245 -0.0705761 1.89216 31 20 28
-0.285426 -0.071079 1.90232 40 29 33
-0.258274 -0.0714912 1.89913 36 25 23
-0.231122 -0.0719033 1.89594 33 24 25
-0.204588 -0.0724171 1.90601 38 27 21
-0.177258 -0.0728319 1.9028 34 21 30
-0.149927 -0.0732468 1.89959 45 31 22
-0.122597 -0.0736617 1.89637 37 28 19
-0.0952659 -0.0740765 1.89316 33 25 23
-0.0676385 -0.0746154 1.90412 33 23 21
-0.0401154 -0.0750332 1.90089 63 53 51
0.0138518 -0.0804873 2.44548 90 67 61
0.0488399 -0.0810184 2.44137 93 73 64
0.0855043 -0.0817628 2.45938 98 78 71
0.120795 -0.0822985 2.45524 107 84 78
0.156085 -0.0828342 2.45109 108 88 77
0.188792 -0.0831429 2.42492 99 79 78
0.226666 -0.0839056 2.4428 108 84 80
0.261957 -0.0844413 2.43865 104 81 75
0.300739 -0.0852177 2.45641 105 81 79
0.332538 -0.0855126 2.43036 116 89 80
0.371925 -0.0862983 2.44805 109 87 74
0.407518 -0.0868386 2.44387 101 82 75
0.443111 -0.0873789 2.43968 97 74 66
0.4737 -0.0876554 2.41377 83 66 59
0.508991 -0.0881911 2.40962 53 39 36
0.478823 -0.0845322 2.03269 30 25 21
0.495685 -0.084387 1.98302 32 24 22
0.467422 -0.0822935 1.78849 32 27 24
0.467888 -0.081575 1.70219 52 41 39
0.482524 -0.0815069 1.66598 51 40 38
0.489139 -0.0811379 1.6094 47 32 35
0.495646 -0.0808013 1.55689 61 46 51
0.460247 -0.0788812 1.39668 126 106 95
0.472647 -0.0788646 1.37087 164 148 122
0.481641 -0.0787365 1.33836 163 143 118
0.49953 -0.0789482 1.32916 173 153 129
0.507568 -0.0788142 1.29778 175 155 130
0.518685 -0.0788037 1.27516 178 161 135
0.535488 -0.078999 1.26609 176 154 130
0.545642 -0.0789739 1.24359 177 155 131
0.565191 -0.0792706 1.24129 178 158 134
0.581809 -0.0794716 1.23325 180 163 137
0.594242 -0.0795409 1.21758 175 153 132
0.61042 -0.0797352 1.20959 165 143 119
0.629612 -0.0800266 1.20734 161 141 116
0.644998 -0.0802004 1.19843 175 159 126
0.657406 -0.0802863 1.1848 177 156 137
0.676336 -0.0805736 1.18257 172 154 130
0.691173 -0.0807391 1.17373 159 138 107
0.706416 -0.0809193 1.16585 166 143 112
0.728842 -0.0813109 1.1693 160 138 114
0.763955 -0.0820658 1.19155 170 149 120
0.778668 -0.0822294 1.18272 175 150 130
0.793842 -0.0824085 1.17485 174 151 117
-1.06173 -0.0306331 2.30216 120 100 101
-1.03045 -0.0311079 2.29848 129 109 98
-1.00582 -0.0313936 2.31287 139 116 108
-0.981097 -0.0316755 2.32826 121 116 97
-0.94934 -0.0321575 2.32453 131 121 112
-0.923875 -0.0324507 2.33983 142 125 115
-0.89187 -0.0329365 2.33607 145 126 120
-0.865662 -0.0332409 2.35129 153 129 127
-0.83341 -0.0337305 2.3475 154 129 124
-0.806755 -0.0340365 2.36368 155 135 128
-0.768906 -0.0347097 2.33992 119 108 90
-0.620742 -0.0392105 1.88136 34 31 24
-0.591416 -0.0397179 1.86572 25 21 22
-0.56817 -0.0400085 1.87518 36 26 27
-0.54482 -0.0402955 1.88565 40 25 28
-0.518356 -0.0406972 1.88255 37 26 20
-0.491891 -0.0410989 1.87944 36 27 22
-0.465427 -0.0415006 1.87633 32 22 20
-0.441013 -0.041809 1.88566 40 29 27
-0.416425 -0.0421147 1.89598 41 29 29
-0.391337 -0.0424333 1.90523 33 29 26
-0.362809 -0.0429286 1.88968 34 25 28
-0.337391 -0.0432522 1.89889 32 21 19
-0.311745 -0.043574 1.90909 36 26 27
-0.285742 -0.0439013 1.91925 36 25 21
-0.258411 -0.0443162 1.91604 36 26 25
-0.231081 -0.044731 1.91283 27 25 10
-0.20375 -0.0451459 1.90962 35 24 28
-0.17642 -0.0455607 1.90641 32 29 20
-0.149364 -0.0458988 1.91746 32 23 24
-0.121758 -0.0463905 1.89998 34 23 21
-0.0942152 -0.0466685 1.92419 21 18 9
-0.0665134 -0.047089 1.92094 38 29 22
-0.0200635 -0.0450442 2.45421 63 49 46
0.0149246 -0.0455753 2.4501 66 50 35
0.0499127 -0.0461064 2.44599 75 58 51
0.0849008 -0.0466375 2.44188 74 56 46
0.119889 -0.0471686 2.43777 82 58 54
0.154877 -0.0476997 2.43366 80 60 51
0.189865 -0.0482308 2.42954 87 67 56
0.224853 -0.0487619 2.42543 74 55 41
0.263039 -0.0492274 2.44331 79 56 50
0.294829 -0.0498241 2.41721 83 61 50
0.329818 -0.0503552 2.4131 85 61 51
0.364806 -0.0508863 2.40899 79 59 48
0.399794 -0.0514174 2.40488 92 67 60
0.434782 -0.0519485 2.40077 82 65 49
0.464985 -0.0525159 2.37587 67 58 41
0.494611 -0.0530746 2.35104 70 53 43
0.529022 -0.0535969 2.347 36 26 24
0.484052 -0.0544449 2.05242 24 23 18
0.488104 -0.0549889 1.95742 30 26 23
0.491674 -0.0554893 1.86958 30 26 27
0.46495 -0.0559968 1.69382 38 30 28
0.472601 -0.0563983 1.63702 44 37 31
0.486509 -0.0567755 1.60285 55 42 36
0.492857 -0.0571365 1.55027 48 32 35
0.50584 -0.057484 1.51926 75 61 52
0.470264 -0.0577482 1.36589 153 135 113
0.479527 -0.0580444 1.33431 152 136 111
0.491218 -0.058336 1.31057 145 133 107
0.502304 -0.0586185 1.28691 134 117 99
0.513219 -0.0588931 1.26428 154 140 127
0.524005 -0.0591606 1.24268 158 143 120
0.534241 -0.0594197 1.22115 170 155 134
0.550106 -0.0596969 1.21217 171 156 127
0.563333 -0.0599599 1.19842 170 149 130
0.578744 -0.0602302 1.18949 176 150 135
0.594479 -0.0605002 1.18154 168 153 124
0.616413 -0.060802 1.18507 171 150 123
0.631983 -0.0610695 1.17714 169 148 129
0.650735 -0.0613541 1.17493 168 146 123
0.662628 -0.0615969 1.16134 175 150 119
0.681215 -0.061879 1.15915 169 149 125
0.696208 -0.0621377 1.15129 168 157 112
0.711036 -0.062394 1.14345 161 141 117
0.725699 -0.0626477 1.13563 145 111 84
0.740197 -0.0628989 1.12783 155 127 106
0.785923 -0.063375 1.16515 162 138 114
-1.06077 0.000575079 2.30629 127 116 110
-1.02949 0.000100324 2.30261 133 116 106
-1.00485 4.78214e-005 2.31703 136 116 109
-0.973344 -0.000430483 2.31333 141 120 119
-0.941834 -0.000908787 2.30963 139 120 105
-0.922894 -0.00051544 2.34406 143 123 114
-0.890889 -0.00100126 2.3403 142 124 112
-0.858884 -0.00148707 2.33654 134 124 97
-0.832421 -0.00154832 2.35176 137 118 101
-0.805758 -0.00159371 2.36798 136 116 105
-0.773244 -0.00208725 2.36416 113 93 86
-0.619936 -0.0129819 1.88483 37 32 26
-0.59365 -0.0133809 1.88174 34 28 30
-0.570473 -0.0134868 1.89226 36 31 27
-0.544009 -0.0138886 1.88915 31 27 18
-0.520084 -0.0140248 1.89856 32 27 23
-0.493455 -0.014429 1.89543 33 26 18
-0.46922 -0.014551 1.90582 33 23 21
-0.444457 -0.0146999 1.91513 33 25 22
-0.417483 -0.0151093 1.91196 32 27 21
-0.39051 -0.0155188 1.90879 37 23 22
-0.363537 -0.0159282 1.90562 28 27 22
-0.338065 -0.016069 1.91587 36 30 32
-0.312235 -0.0162152 1.92607 28 19 10
-0.284904 -0.0166301 1.92286 35 25 26
-0.257573 -0.017045 1.91965 35 31 19
-0.230243 -0.0174598 1.91644 38 24 24
-0.203566 -0.0176 1.92756 40 25 28
-0.176471 -0.0177654 1.93761 36 25 23
-0.148769 -0.0181859 1.93436 35 19 22
-0.121068 -0.0186064 1.9311 30 22 20
-0.0932496 -0.0187639 1.94209 34 25 20
-0.0650467 -0.0189272 1.95304 30 27 20
-0.0364588 -0.0190964 1.96393 49 35 32
0.0128762 -0.0118074 2.39093 62 45 35
0.0457324 -0.0126844 2.3667 58 35 29
0.0811202 -0.0128433 2.38291 73 50 44
0.115242 -0.0133612 2.3789 66 52 43
0.149364 -0.0138792 2.37489 76 51 46
0.181121 -0.0147395 2.3508 72 53 49
0.214968 -0.0152533 2.34682 75 56 41
0.254791 -0.0150823 2.38389 78 58 47
0.285852 -0.015951 2.35886 82 61 56
0.319974 -0.016469 2.35485 91 68 62
0.354096 -0.0169869 2.35084 88 64 52
0.388218 -0.0175049 2.34683 84 56 52
0.42234 -0.0180228 2.34282 74 49 45
0.451897 -0.0188497 2.31898 67 48 44
0.485744 -0.0193635 2.315 72 56 43
0.519591 -0.0198773 2.31103 51 37 34
0.548048 -0.0206875 2.28732 23 15 13
0.484746 -0.0261948 1.94648 27 24 19
0.496688 -0.0274541 1.88703 29 25 24
0.499603 -0.0290302 1.8042 30 26 23
0.469789 -0.0318874 1.6295 51 44 36
0.483871 -0.0326875 1.59627 47 36 32
0.4971 -0.0334746 1.56315 47 36 34
0.499968 -0.0345961 1.50477 43 32 36
0.508858 -0.0354308 1.46605 91 79 63
0.477014 -0.0375574 1.32926 83 70 61
0.485737 -0.0382383 1.2987 78 66 68
0.497028 -0.0388069 1.27599 97 86 82
0.507742 -0.0393667 1.25334 83 76 58
0.515637 -0.0399782 1.22594 87 74 66
0.528824 -0.0404243 1.21115 136 120 107
0.538798 -0.040935 1.19063 172 151 130
0.554613 -0.0412886 1.18266 179 153 130
0.570263 -0.0416396 1.17471 170 149 132
0.585748 -0.0419881 1.16678 173 151 128
0.601069 -0.0423342 1.15887 178 157 130
0.612957 -0.0427416 1.14526 168 154 125
0.631214 -0.0430187 1.14311 171 145 118
0.646039 -0.0433572 1.13526 141 92 95
0.664214 -0.0436331 1.13312 147 100 92
0.682389 -0.043909 1.13099 130 66 56
0.700563 -0.0441849 1.12885 129 31 32
0.718738 -0.0444607 1.12672 136 33 34
0.733068 -0.0447917 1.11892 129 42 48
0.747233 -0.0451203 1.11115 124 59 53
-1.05981 0.0317833 2.31042 35 30 27
-1.0354 0.0319676 2.32489 72 63 68
-1.00389 0.0314893 2.32119 110 101 92
-0.97915 0.0317012 2.33665 127 104 86
-0.947392 0.0312192 2.33292 134 118 102
-0.921912 0.0314199 2.34829 122 105 95
-0.895937 0.031613 2.3636 129 110 93
-0.869788 0.0318362 2.37991 140 113 106
-0.837274 0.0313427 2.37609 127 108 91
-0.79918 0.0301443 2.35223 134 112 101
-0.777567 0.0310565 2.38846 123 97 98
-0.622591 0.0137236 1.90197 38 29 32
-0.596126 0.0133219 1.89886 29 19 20
-0.572527 0.0133553 1.90833 31 28 19
-0.548822 0.0134197 1.91881 35 30 24
-0.522014 0.0130128 1.91566 35 29 29
-0.495206 0.0126059 1.91251 35 20 27
-0.470603 0.0126241 1.92186 45 35 34
-0.443629 0.0122146 1.91869 42 26 29
-0.416656 0.0118052 1.91552 33 28 25
-0.391536 0.0118482 1.92583 36 26 24
-0.36271 0.0109863 1.90918 39 29 30
-0.335737 0.0105769 1.90602 36 26 24
-0.311397 0.011056 1.92968 30 23 13
-0.286429 0.0115582 1.95429 42 35 29
-0.257768 0.0106988 1.93766 41 32 33
-0.231025 0.0107172 1.94778 30 25 21
-0.202722 0.00986325 1.93119 36 24 24
-0.176077 0.01034 1.95561 34 24 22
-0.148183 0.00991658 1.95233 36 25 19
-0.120218 0.00903517 1.93476 35 24 22
-0.0923943 0.00906974 1.94578 35 25 24
-0.0641854 0.00909846 1.95674 26 18 15
-0.0355917 0.00912134 1.96767 43 29 29
0.0119239 0.0209653 2.35486 58 43 36
0.0442218 0.0198223 2.33067 66 46 37
0.0790681 0.0199461 2.34697 75 51 47
0.110816 0.0188115 2.32284 82 59 51
0.144113 0.018306 2.31893 81 53 50
0.179784 0.0184173 2.33514 76 51 46
0.210707 0.0172952 2.3111 65 46 32
0.246928 0.0173981 2.32725 87 64 58
0.280501 0.0168885 2.32331 74 54 43
0.310599 0.0157789 2.29937 75 55 44
0.343896 0.0152734 2.29545 86 58 55
0.37337 0.0142059 2.27261 84 62 51
0.406406 0.0137045 2.26872 76 58 36
0.439442 0.013203 2.26484 84 59 52
0.477084 0.0132517 2.2798 72 52 45
0.505514 0.0122001 2.25708 72 56 43
0.543679 0.0122408 2.27198 38 31 23
0.485632 0.00261284 1.95029 27 17 15
0.497549 0.000571632 1.89074 31 25 29
0.504476 -0.00175282 1.82055 33 28 34
0.470543 -0.00737352 1.63274 41 29 33
0.480886 -0.00890127 1.58868 44 38 38
0.491131 -0.0103296 1.54769 47 38 33
0.500671 -0.0117147 1.5078 49 33 46
0.506506 -0.0132719 1.4612 47 41 29
0.515041 -0.0145437 1.42449 58 47 43
0.483502 -0.0183404 1.29455 84 71 65
0.49174 -0.0193793 1.26502 80 65 60
0.502688 -0.0201983 1.24333 98 83 80
0.513085 -0.0210088 1.2217 164 148 125
0.520621 -0.0219391 1.19531 172 153 136
0.536516 -0.0223762 1.18732 167 148 131
0.546368 -0.0231133 1.1678 162 146 110
0.555724 -0.0238427 1.14834 172 159 124
0.570794 -0.0242673 1.14044 173 152 123
0.592073 -0.0243945 1.14407 164 144 117
0.597715 -0.0252308 1.11994 161 143 119
0.609429 -0.0257676 1.10734 173 145 134
0.636866 -0.0256293 1.12146 179 120 122
0.64836 -0.0261627 1.10889 184 122 135
0.66255 -0.026574 1.1011 175 110 114
0.673507 -0.0270993 1.08859 154 91 99
0.697964 -0.0271115 1.09694 159 87 88
0.719518 -0.0272429 1.10052 157 78 81
0.737308 -0.0275129 1.09843 144 76 73
-1.00993 0.0638716 2.34457 107 82 78
-0.971412 0.0624524 2.32165 114 85 79
-0.946419 0.0629075 2.33711 114 97 81
-0.920931 0.0633551 2.35251 113 88 84
-0.888926 0.0628693 2.34875 118 95 77
-0.856921 0.0623835 2.34499 110 93 65
-0.830443 0.0628161 2.36028 116 90 67
-0.792911 0.0614119 2.33747 115 90 86
-0.755875 0.0600151 2.31472 118 95 81
-0.621779 0.0401305 1.90547 37 28 21
-0.59834 0.0403311 1.91498 35 29 29
-0.57171 0.0399268 1.91185 31 23 21
-0.550695 0.0407669 1.93493 42 32 31
-0.523722 0.0403575 1.93176 40 29 23
-0.499311 0.0405896 1.94218 36 28 25
-0.472159 0.0401774 1.93899 38 27 21
-0.445007 0.0397653 1.9358 36 24 26
-0.417855 0.0393531 1.93261 32 25 15
-0.390703 0.038941 1.92942 28 21 11
-0.363551 0.0385288 1.92623 26 21 18
-0.337889 0.038742 1.9365 27 23 20
-0.31197 0.0389976 1.94776 34 30 29
-0.285579 0.0391997 1.95795 33 25 22
-0.258904 0.0394439 1.96913 33 28 22
-0.230176 0.0383587 1.95144 36 31 27
-0.203116 0.038597 1.96257 37 27 28
-0.175671 0.0388295 1.97365 35 26 21
-0.147327 0.0377502 1.95602 33 29 20
-0.119498 0.0379768 1.96705 35 25 24
-0.0914109 0.0375504 1.96375 32 23 24
-0.0630037 0.0377683 1.97473 26 18 15
-0.0352375 0.0366978 1.95715 43 27 27
0.0100309 0.0518198 2.30036 58 44 35
0.0428056 0.0513223 2.29651 58 41 31
0.0741006 0.0499664 2.27341 75 52 46
0.108355 0.0503273 2.28881 62 46 31
0.139128 0.0489794 2.26577 71 54 36
0.173904 0.0493323 2.28111 75 59 43
0.204155 0.0479923 2.25813 64 50 37
0.239454 0.0483373 2.2734 72 49 43
0.272229 0.0478398 2.26955 80 57 49
0.305003 0.0473423 2.2657 80 64 48
0.337778 0.0468448 2.26185 93 70 62
0.370553 0.0463473 2.258 84 62 51
0.399236 0.0450311 2.23521 91 74 58
0.431749 0.0445375 2.23139 89 73 58
0.464263 0.044044 2.22757 73 54 47
0.496776 0.0435504 2.22375 80 58 44
0.52929 0.0430569 2.21993 37 30 20
0.49424 0.0280115 1.88063 36 31 28
0.501258 0.0247988 1.81133 30 27 22
0.511964 0.0223182 1.75897 28 22 22
0.478231 0.0146243 1.58202 50 39 35
0.488322 0.012663 1.54098 55 45 46
0.501374 0.0111668 1.51082 53 41 45
0.50719 0.00899224 1.46415 49 44 38
0.51571 0.00724026 1.42737 43 31 31
0.478407 0.00108413 1.28356 110 94 81
0.489392 -5.62011e-005 1.2608 161 145 120
0.497622 -0.00138655 1.23326 162 145 127
0.508282 -0.00242921 1.21259 166 147 115
0.521196 -0.00322794 1.19779 155 138 118
0.52851 -0.00445164 1.1724 179 159 132
0.535165 -0.00566532 1.14709 174 151 135
0.550232 -0.00617221 1.13918 173 158 135
0.562546 -0.0068691 1.12649 179 162 132
0.574557 -0.0075614 1.11384 182 159 143
0.586266 -0.0082491 1.10122 175 154 125
0.594877 -0.0091216 1.08386 167 140 129
0.609349 -0.00957308 1.07704 168 137 116
0.629549 -0.0096479 1.07978 178 129 122
0.646885 -0.00991105 1.07774 174 120 120
0.664221 -0.0101742 1.07571 168 105 113
0.681557 -0.0104374 1.07367 167 90 106
0.698893 -0.0107005 1.07163 161 85 98
0.719505 -0.0107816 1.07432 168 137 117
-1.01292 0.0914742 2.27858 43 35 24
-0.988725 0.0921284 2.29314 112 86 73
-0.964064 0.0927755 2.30765 105 76 68
-0.920493 0.0900712 2.26772 110 91 77
-0.901512 0.091826 2.3003 111 82 76
-0.870236 0.0913512 2.29663 111 84 75
-0.83896 0.0908765 2.29295 114 87 70
-0.807683 0.0904017 2.28928 107 89 67
-0.776407 0.089927 2.2856 115 91 79
-0.745131 0.0894522 2.28193 115 86 70
-0.630787 0.0689097 1.948 42 24 24
-0.597523 0.0669026 1.9185 32 26 26
-0.576841 0.0680908 1.94166 33 21 21
-0.552782 0.0685067 1.95215 33 28 25
-0.52563 0.0680946 1.94896 33 20 12
-0.498478 0.0676824 1.94577 37 31 35
-0.471326 0.0672703 1.94258 30 26 23
-0.444174 0.0668581 1.93939 31 22 23
-0.419043 0.0672578 1.94974 29 24 21
-0.389871 0.0660338 1.93301 29 21 19
-0.364382 0.066428 1.94332 39 28 26
-0.338649 0.0668786 1.95463 36 27 22
-0.313838 0.0681243 1.97936 32 28 27
-0.285943 0.0677009 1.97609 40 26 25
-0.258049 0.0672775 1.97281 30 23 17
-0.230155 0.0668541 1.96953 31 21 19
-0.202897 0.0672815 1.98066 40 30 29
-0.17481 0.0668551 1.97736 31 20 24
-0.146472 0.0655838 1.9597 39 27 27
-0.118636 0.0660025 1.97076 37 24 31
-0.0905497 0.0655761 1.96746 27 22 16
-0.0621366 0.065986 1.97846 25 21 20
-0.0338575 0.0655568 1.97514 45 35 25
0.00727612 0.080134 2.22936 50 36 27
0.0390335 0.079652 2.22563 67 43 41
0.0707909 0.0791699 2.2219 68 49 32
0.102548 0.0786879 2.21816 71 49 36
0.134306 0.0782058 2.21443 78 55 47
0.166063 0.0777237 2.2107 80 58 47
0.19782 0.0772417 2.20697 84 56 55
0.232224 0.077801 2.22136 68 53 46
0.264229 0.0773152 2.2176 83 60 52
0.296234 0.0768294 2.21384 89 72 56
0.32485 0.0753134 2.19204 82 64 54
0.360244 0.0758577 2.20632 93 69 59
0.392249 0.0753719 2.20256 92 70 59
0.420122 0.0738673 2.18085 84 60 60
0.451879 0.0733852 2.17712 87 62 58
0.483637 0.0729031 2.17339 72 55 47
0.520268 0.0734286 2.18751 50 40 41
0.552273 0.0729428 2.18375 29 19 20
0.584278 0.072457 2.17999 25 20 17
0.506141 0.0524328 1.82772 34 28 28
0.51277 0.0485468 1.76244 39 33 33
0.475567 0.0378755 1.57533 39 31 29
0.489037 0.0359286 1.54406 52 38 35
0.498407 0.0335031 1.50404 59 48 42
0.507875 0.0312564 1.46709 56 46 45
0.51638 0.0290243 1.43026 56 45 49
0.518207 0.0260524 1.37987 53 42 36
0.489991 0.0194507 1.26338 115 98 78
0.498211 0.0177636 1.2358 150 129 110
0.505716 0.0160875 1.20829 158 141 113
0.516212 0.0148466 1.18863 166 148 126
0.523351 0.0132962 1.16321 169 153 130
0.532775 0.0120716 1.14368 169 155 128
0.545235 0.0112215 1.13095 171 156 123
0.554284 0.0100627 1.11248 175 158 130
0.569249 0.00953514 1.1056 177 156 125
0.578073 0.00843982 1.08818 180 156 128
0.592611 0.00791871 1.08135 176 156 129
0.603573 0.00709137 1.0688 176 154 130
0.614819 0.0063198 1.05724 176 157 124
0.631798 0.00606208 1.05525 178 154 118
0.648776 0.00580435 1.05325 168 141 120
0.665755 0.00554663 1.05126 176 129 121
0.682733 0.0052889 1.04926 173 139 129
0.702991 0.00528183 1.052 155 134 107
-1.00513 0.120857 2.26441 43 24 17
-0.962119 0.117843 2.22653 107 87 63
-0.943983 0.119929 2.25722 112 85 74
-0.913408 0.119465 2.25363 119 96 78
-0.882833 0.119001 2.25004 123 94 78
-0.85793 0.119878 2.26455 115 88 77
-0.827122 0.11941 2.26093 116 89 82
-0.796313 0.118942 2.25731 109 89 78
-0.765504 0.118475 2.25369 107 89 65
-0.734695 0.118007 2.25007 116 91 87
-0.703887 0.117539 2.24645 55 44 40
-0.599972 0.0944833 1.93573 35 30 27
-0.576014 0.0950054 1.94523 32 25 19
-0.554858 0.0966033 1.96941 36 27 22
-0.527527 0.0961884 1.9662 32 28 19
-0.500197 0.0957736 1.96299 34 23 21
-0.472866 0.0953587 1.95978 31 25 27
-0.447898 0.096013 1.9712 39 28 32
-0.422389 0.0965854 1.98154 35 25 24
-0.394688 0.0961649 1.97829 43 34 29
-0.366986 0.0957444 1.97503 42 31 29
-0.339284 0.0953239 1.97178 25 16 17
-0.314382 0.0970125 1.99757 30 24 26
-0.286296 0.0965862 1.99427 38 26 26
-0.258209 0.0961599 1.99097 36 27 22
-0.230122 0.0957335 1.98767 33 24 19
-0.202035 0.0953072 1.98437 32 23 18
-0.173949 0.0948808 1.98107 31 21 20
-0.145862 0.0944545 1.97777 32 22 20
-0.117775 0.0940282 1.97447 31 23 21
-0.0894089 0.0956642 1.99986 27 22 18
-0.0609372 0.0952321 1.99652 32 27 21
-0.0319408 0.0958253 2.00747 45 32 23
0.00645687 0.109266 2.19786 56 42 29
0.0366284 0.107554 2.17688 68 49 42
0.0676709 0.107082 2.17323 67 45 34
0.100285 0.107842 2.18684 74 51 45
0.131562 0.107367 2.18316 76 52 40
0.162838 0.106893 2.17949 81 56 51
0.194114 0.106418 2.17581 78 58 34
0.22539 0.105943 2.17214 89 62 67
0.256666 0.105468 2.16846 89 67 54
0.287943 0.104993 2.16479 98 69 65
0.319219 0.104519 2.16111 95 76 62
0.350495 0.104044 2.15744 83 60 46
0.381771 0.103569 2.15376 92 70 56
0.413047 0.103094 2.15009 85 65 54
0.440181 0.101428 2.12946 85 58 51
0.471223 0.100957 2.12581 80 60 49
0.506876 0.10167 2.13906 76 62 53
0.538152 0.101195 2.13539 63 49 38
0.564351 0.099543 2.11487 34 25 20
0.506973 0.0795257 1.83131 23 19 16
0.513576 0.0747755 1.76591 36 27 28
0.523885 0.0711499 1.71648 32 31 27
0.486215 0.0585097 1.53729 46 36 37
0.495799 0.0556333 1.49821 49 42 36
0.508559 0.0535206 1.47004 47 39 36
0.517049 0.0508083 1.43314 54 46 44
0.522125 0.0477051 1.39049 52 39 46
0.523962 0.0442819 1.34308 60 46 43
0.498799 0.0369138 1.23833 119 100 83
0.503594 0.0344791 1.20494 155 135 124
0.514 0.0329926 1.18525 154 139 108
0.518182 0.0307148 1.15399 159 139 115
0.527925 0.0293122 1.13541 174 150 116
0.5372 0.0279166 1.11688 174 155 138
0.546526 0.0265941 1.09937 177 160 134
0.558606 0.0256726 1.08769 174 158 125
0.572597 0.0250174 1.07989 175 155 130
0.581383 0.0237769 1.06347 171 153 131
0.595493 0.0231936 1.05669 178 156 132
0.606529 0.022288 1.04513 174 157 129
0.620296 0.02171 1.03839 175 154 127
0.63085 0.0208117 1.02689 175 150 128
0.644273 0.0202389 1.02018 161 146 125
0.660771 0.0199885 1.01824 163 139 115
0.680549 0.0200573 1.02105 166 141 121
-1.01103 0.152958 2.28672 36 25 23
-0.954983 0.146417 2.21333 108 86 62
-0.919075 0.144472 2.19267 119 91 70
-0.88938 0.144021 2.18918 115 93 80
-0.865238 0.145055 2.20279 110 89 70
-0.835322 0.144601 2.19927 126 98 87
-0.81052 0.145625 2.2128 114 92 69
-0.775492 0.143693 2.19224 106 89 61
-0.750249 0.14471 2.20572 120 94 81
-0.720114 0.144253 2.20218 104 82 61
-0.689979 0.143795 2.19864 61 55 31
-0.60542 0.123517 1.9657 24 24 22
-0.578269 0.123105 1.96251 28 24 12
-0.557146 0.125147 1.98777 30 21 16
-0.529623 0.12473 1.98454 30 23 15
-0.504645 0.125488 1.99497 37 24 18
-0.476944 0.125068 1.99171 34 25 26
-0.449242 0.124647 1.98846 27 22 18
-0.42154 0.124227 1.9852 39 25 24
-0.39581 0.125062 1.99656 35 24 28
-0.366136 0.123386 1.97869 31 23 20
-0.340021 0.124215 1.99001 30 27 22
-0.313521 0.125038 2.00128 25 23 11
-0.285434 0.124612 1.99798 28 23 17
-0.257348 0.124186 1.99468 33 26 18
-0.230077 0.124997 2.00587 33 20 27
-0.201798 0.124568 2.00254 26 19 9
-0.173519 0.124139 1.99922 42 31 29
-0.145479 0.124938 2.01031 32 25 15
-0.116961 0.12328 1.99257 35 28 20
-0.0883902 0.125297 2.01799 33 28 24
-0.059726 0.124862 2.01462 28 25 20
-0.0299248 0.127036 2.04195 43 33 24
0.00478169 0.13605 2.14989 72 51 34
0.0353568 0.135586 2.1463 69 44 37
0.0659318 0.135122 2.1427 86 60 47
0.0965069 0.134658 2.13911 78 51 44
0.125376 0.132819 2.11928 78 53 46
0.153805 0.130987 2.09949 52 40 28
0.173611 0.123946 2.01804 76 69 59
0.204906 0.124784 2.02977 39 34 15
0.246796 0.130976 2.10501 44 36 34
0.279957 0.131873 2.11756 88 73 54
0.310532 0.131409 2.11396 94 72 58
0.344556 0.132381 2.12744 93 71 57
0.371682 0.130481 2.10678 102 72 70
0.402257 0.130017 2.10319 99 76 58
0.432833 0.129553 2.09959 84 58 57
0.459282 0.127751 2.08004 91 64 55
0.493983 0.128624 2.09241 78 58 51
0.524558 0.12816 2.08882 74 61 45
0.550347 0.126368 2.06934 52 38 35
0.575696 0.124583 2.04992 35 26 29
0.514382 0.101004 1.76938 31 28 19
0.524671 0.0967338 1.71987 37 32 28
0.493184 0.0775166 1.49234 52 38 37
0.505809 0.075049 1.46414 45 37 34
0.514556 0.0719401 1.42817 54 48 36
0.522777 0.0689267 1.39329 58 50 47
0.530937 0.0660892 1.36048 48 41 33
0.52602 0.0609993 1.30042 52 43 34
0.510023 0.0542394 1.22009 116 105 77
0.511783 0.050974 1.18186 151 133 113
0.51587 0.0482859 1.15055 161 144 118
0.526014 0.0467314 1.13291 163 146 120
0.532687 0.0447043 1.10952 172 158 132
0.538754 0.0426865 1.0862 171 155 132
0.550611 0.0416312 1.07453 183 158 128
0.564925 0.0409762 1.06771 171 154 126
0.570697 0.0391379 1.04648 174 155 125
0.58166 0.0380961 1.03491 182 157 127
0.595287 0.0374516 1.02817 178 154 126
0.609378 0.0368876 1.02241 174 154 121
0.619667 0.0358561 1.01092 169 147 110
0.635972 0.0356086 1.00901 171 156 123
0.649063 0.0349722 1.00233 160 140 105
0.668582 0.0351136 1.00517 163 150 115
-0.930406 0.169732 2.1517 97 69 65
-0.90133 0.16929 2.14829 101 73 70
-0.872253 0.168849 2.14487 109 84 77
-0.848376 0.170005 2.15751 116 93 85
-0.819093 0.169561 2.15407 118 90 79
-0.78981 0.169116 2.15063 115 87 84
-0.765108 0.17026 2.16317 106 82 72
-0.735619 0.169813 2.1597 111 81 89
-0.70613 0.169365 2.15624 110 83 72
-0.672679 0.167338 2.13686 86 70 55
-0.611348 0.153446 1.99788 29 19 27
-0.580512 0.151561 1.97984 31 26 20
-0.559199 0.153971 2.00513 32 26 26
-0.531498 0.153551 2.00188 35 27 24
-0.503796 0.15313 1.99862 35 30 24
-0.478637 0.154166 2.01008 36 25 23
-0.448392 0.152289 1.99211 33 30 25
-0.420691 0.151869 1.98886 39 22 15
-0.394954 0.152895 2.00025 38 29 24
-0.36706 0.152472 1.99697 36 26 24
-0.339166 0.152049 1.99369 45 38 32
-0.31266 0.153064 2.00499 41 27 24
-0.285769 0.154073 2.01625 36 26 27
-0.25749 0.153644 2.01292 37 33 30
-0.230021 0.154645 2.02411 31 22 13
-0.202168 0.15564 2.03525 40 31 34
-0.173504 0.155204 2.03188 33 27 29
-0.144606 0.153348 2.01407 28 20 17
-0.116175 0.154334 2.02514 30 22 19
-0.0875112 0.153899 2.02178 27 22 18
-0.0584785 0.154977 2.03381 39 28 26
-0.0273086 0.16058 2.09192 54 39 34
0.00321974 0.161736 2.1048 75 54 37
0.0320818 0.159678 2.08494 84 57 46
0.0630501 0.160828 2.09777 97 73 63
0.0914722 0.158777 2.07796 64 46 36
0.119561 0.156831 2.05922 111 78 47
0.145426 0.153401 2.02529 43 36 26
0.174503 0.15296 2.02188 56 40 40
0.203579 0.152518 2.01846 44 33 29
0.239948 0.156523 2.06052 62 46 20
0.269643 0.156072 2.05703 88 61 44
0.302371 0.157195 2.06965 105 76 58
0.332287 0.156741 2.06614 91 68 62
0.362202 0.156287 2.06262 105 80 60
0.392117 0.155833 2.05911 94 74 50
0.422032 0.155379 2.05559 94 74 67
0.451947 0.154925 2.05208 86 67 53
0.486215 0.156025 2.06452 87 63 59
0.51635 0.155567 2.06098 82 63 49
0.546485 0.15511 2.05744 68 45 37
0.566595 0.151565 2.02213 48 35 29
0.515188 0.127233 1.77285 23 22 20
0.525457 0.122318 1.72326 37 36 34
0.523444 0.11445 1.64319 39 27 29
0.490561 0.0991529 1.48645 42 31 35
0.499995 0.0955669 1.45033 49 41 28
0.508494 0.0919951 1.41433 54 44 45
0.523429 0.0901483 1.3961 54 45 50
0.52819 0.0861269 1.35539 55 40 43
0.532752 0.0823111 1.31676 52 38 38
0.530888 0.0773777 1.26654 60 50 41
0.517922 0.0704864 1.19599 125 105 98
0.514031 0.0657863 1.14806 161 143 123
0.520656 0.0633568 1.1236 157 141 118
0.525131 0.0606562 1.09631 156 144 120
0.534086 0.0589001 1.07878 175 150 128
0.540469 0.0567781 1.05744 170 153 125
0.554506 0.0560587 1.05065 160 114 99
0.562798 0.054414 1.03423 141 76 72
0.574125 0.0533307 1.02363 134 58 58
0.587558 0.0526205 1.01691 168 132 110
0.603863 0.052373 1.01499 171 155 122
0.609084 0.0504711 0.995846 174 150 124
0.630807 0.0510527 1.00256 185 153 138
0.643772 0.0503496 0.995889 174 156 120
0.657256 0.0497398 0.990186 186 155 127
-0.917892 0.195119 2.12324 74 59 38
-0.889228 0.194684 2.11987 97 80 64
-0.865963 0.196056 2.1326 95 74 53
-0.831899 0.193814 2.11313 110 82 70
-0.803235 0.193379 2.10976 112 79 74
-0.779352 0.194741 2.12243 113 89 77
-0.750481 0.194303 2.11904 123 90 85
-0.725979 0.195655 2.13163 111 87 75
-0.696902 0.195214 2.12821 113 91 68
-0.66387 0.192988 2.10886 102 78 66
-0.617253 0.184116 2.03015 43 32 30
-0.589359 0.183693 2.02687 38 25 19
-0.561465 0.18327 2.0236 35 25 15
-0.53357 0.182846 2.02032 29 25 13
-0.505676 0.182423 2.01704 34 25 30
-0.477782 0.181999 2.01376 35 24 18
-0.452232 0.183221 2.0252 32 32 34
-0.424145 0.182795 2.0219 29 22 16
-0.398018 0.184008 2.03327 29 22 14
-0.369739 0.183579 2.02995 31 19 19
-0.34146 0.18315 2.02663 26 19 13
-0.315945 0.185982 2.05251 31 28 19
-0.288556 0.187291 2.06476 28 19 20
-0.259686 0.186853 2.06137 32 24 13
-0.229953 0.184676 2.0424 25 21 20
-0.201945 0.185976 2.05458 32 27 23
-0.173075 0.185538 2.05119 33 24 19
-0.144204 0.1851 2.0478 46 37 32
-0.115334 0.184661 2.04441 47 39 36
-0.0864635 0.184223 2.04101 42 31 29
-0.0568432 0.187223 2.06847 64 46 32
-0.0275605 0.186778 2.06503 89 62 53
0.00250971 0.188047 2.07697 94 65 57
0.0300114 0.18418 2.0428 104 82 61
0.0602878 0.185445 2.05471 104 77 60
0.0895706 0.185 2.05127 80 64 51
0.117241 0.182856 2.03255 49 40 33
0.146318 0.182414 2.02913 25 19 7
0.173369 0.180279 2.01048 50 36 36
0.204471 0.181532 2.0223 36 27 20
0.235984 0.182778 2.03407 99 71 49
0.262624 0.180649 2.01547 128 90 51
0.2917 0.180208 2.01205 73 55 43
0.320777 0.179766 2.00863 95 74 45
0.356378 0.182675 2.03539 79 60 53
0.382398 0.180556 2.01686 97 74 66
0.411681 0.180111 2.01342 91 74 56
0.440964 0.179667 2.00998 93 71 57
0.474333 0.180885 2.02153 98 74 62
0.503823 0.180437 2.01807 87 59 56
0.528812 0.178333 1.99966 70 53 45
0.558095 0.177889 1.99622 63 46 39
0.577554 0.174144 1.96299 33 25 23
0.522149 0.146584 1.71475 29 29 17
0.528101 0.14017 1.65732 37 28 29
0.522218 0.130715 1.57241 39 29 20
0.503727 0.118348 1.46112 51 46 27
0.505983 0.112564 1.40929 52 43 36
0.520802 0.1105 1.39105 53 39 38
0.528826 0.106814 1.35813 45 36 39
0.533372 0.10249 1.31943 52 47 25
0.534646 0.0976415 1.27597 56 47 42
0.532905 0.0923787 1.22873 62 56 40
0.519846 0.0848731 1.16116 127 108 94
0.516272 0.0798681 1.1162 158 141 121
0.522623 0.0772421 1.09276 163 145 125
0.52941 0.0748394 1.07133 155 145 120
0.535646 0.0724451 1.04997 147 87 79
0.544617 0.0706991 1.03448 111 28 24
0.555448 0.0693849 1.02289 142 33 39
0.568878 0.0686062 1.01616 143 34 29
0.579817 0.0674053 1.00559 113 30 22
0.590507 0.0662081 0.99505 132 103 87
0.604031 0.0655429 0.989336 174 149 118
0.614296 0.0643522 0.978847 161 144 116
0.624313 0.0631654 0.968388 169 151 127
0.645916 0.0638723 0.975132 165 153 115
-0.918382 0.206366 1.98769 19 13 15
-0.886364 0.204207 1.9705 22 13 16
-0.900758 0.218068 2.08171 58 44 43
-0.872672 0.217642 2.07841 79 63 48
-0.844585 0.217216 2.07511 106 81 76
-0.816498 0.216789 2.07181 106 86 79
-0.79306 0.218235 2.08352 110 86 74
-0.76478 0.217806 2.0802 114 88 63
-0.736501 0.217377 2.07688 116 98 84
-0.708222 0.216948 2.07356 111 85 72
-0.683821 0.218379 2.08515 116 92 88
-0.65535 0.217947 2.08181 113 87 74
-0.623385 0.21566 2.06359 86 68 58
-0.595105 0.215231 2.06026 32 25 19
-0.563718 0.212952 2.04211 28 22 24
-0.541463 0.216218 2.06843 33 28 24
-0.510268 0.213943 2.0503 45 34 38
-0.48452 0.215354 2.06174 47 37 25
-0.456048 0.214922 2.05839 51 40 34
-0.427577 0.21449 2.05505 55 44 42
-0.399105 0.214057 2.0517 52 43 26
-0.368872 0.211797 2.03368 77 57 50
-0.342162 0.213193 2.04501 82 63 56
-0.315066 0.214584 2.05629 73 57 44
-0.286402 0.214149 2.05292 87 68 54
-0.257738 0.213713 2.04956 101 83 63
-0.22993 0.215222 2.06179 98 71 62
-0.20041 0.212843 2.04282 100 79 76
-0.171746 0.212408 2.03945 105 81 71
-0.14286 0.210168 2.02159 106 83 69
-0.114388 0.209736 2.01825 105 83 72
-0.0857534 0.211103 2.02935 117 91 76
-0.0570892 0.210668 2.02598 114 86 74
-0.0278376 0.212154 2.03804 114 86 75
0.00103271 0.211716 2.03465 117 90 83
0.029903 0.211278 2.03126 105 85 61
0.0575672 0.208927 2.01251 114 81 66
0.0862313 0.208492 2.00914 113 82 80
0.116514 0.209963 2.02108 99 73 50
0.14356 0.207622 2.0024 92 74 64
0.172224 0.207187 1.99903 80 61 47
0.203125 0.208648 2.0109 69 54 47
0.231995 0.20821 2.00751 65 53 41
0.260866 0.207772 2.00412 64 51 34
0.28688 0.205446 1.98556 69 56 47
0.315544 0.205011 1.98219 37 24 15
0.347477 0.206457 1.99394 79 62 52
0.376347 0.206019 1.99055 86 70 55
0.405217 0.205581 1.98716 104 75 69
0.430201 0.203271 1.96872 96 73 55
0.467051 0.206573 1.99539 100 76 64
0.491828 0.204266 1.97698 89 68 67
0.520699 0.203828 1.97359 75 59 46
0.549569 0.20339 1.9702 73 55 43
0.573521 0.201095 1.95188 60 45 38
0.602185 0.20066 1.94851 25 25 17
0.52495 0.163478 1.64968 33 32 27
0.534015 0.157935 1.60522 35 34 29
0.535416 0.15032 1.54409 31 30 35
0.503466 0.132914 1.40422 63 48 43
0.518168 0.130632 1.38596 59 48 54
0.526493 0.126644 1.35398 53 44 39
0.533992 0.122669 1.3221 50 38 48
0.54157 0.11895 1.29228 51 42 37
0.539537 0.112932 1.24396 61 49 49
0.534774 0.106569 1.19285 76 59 52
0.519272 0.0979234 1.12338 128 114 101
0.518084 0.0931793 1.08529 153 136 110
0.524725 0.0905044 1.06384 159 143 117
0.530815 0.0878378 1.04246 107 44 35
0.542382 0.0865038 1.03181 126 29 40
0.550894 0.0845727 1.01634 129 28 36
0.556719 0.0821676 0.997056 146 40 50
0.572653 0.0819257 0.995184 109 34 38
0.583161 0.0806078 0.98465 109 86 68
0.595888 0.0797711 0.977988 163 143 116
0.609108 0.0790556 0.972302 177 158 125
0.622218 0.0783418 0.966629 172 151 120
0.63456 0.0775109 0.960012 170 149 122
-0.901825 0.227465 1.95005 17 17 15
-0.889072 0.241942 2.05517 69 60 53
-0.856524 0.239596 2.03789 104 80 76
-0.833669 0.241101 2.04866 114 95 81
-0.805967 0.24068 2.0454 117 90 79
-0.773955 0.238343 2.02818 113 89 61
-0.750564 0.239839 2.03889 110 89 62
-0.722862 0.239419 2.03564 120 89 71
-0.69516 0.238998 2.03238 108 87 70
-0.667458 0.238578 2.02913 122 89 84
-0.639757 0.238157 2.02587 121 91 89
-0.615542 0.239784 2.03752 116 85 64
-0.587648 0.23936 2.03424 107 86 59
-0.562856 0.240978 2.04582 109 87 76
-0.53186 0.238513 2.02769 111 82 76
-0.503965 0.23809 2.02441 106 85 64
-0.476071 0.237667 2.02113 107 85 71
-0.448177 0.237243 2.01785 119 96 82
-0.420283 0.23682 2.01458 113 88 83
-0.392388 0.236396 2.0113 123 102 73
-0.364494 0.235973 2.00802 120 92 89
-0.3366 0.23555 2.00474 120 90 80
-0.310076 0.237141 2.01612 121 88 83
-0.281989 0.236715 2.01282 114 88 71
-0.253903 0.236288 2.00952 115 88 81
-0.225816 0.235862 2.00622 113 85 73
-0.197729 0.235436 2.00292 109 82 61
-0.169643 0.235009 1.99962 121 92 78
-0.141556 0.234583 1.99632 117 88 72
-0.113469 0.234157 1.99302 120 93 82
-0.0853824 0.23373 1.98972 113 84 70
-0.0572957 0.233304 1.98642 121 94 77
-0.0286547 0.234863 1.99754 123 95 81
-0.000375537 0.234434 1.99422 114 84 74
0.0269645 0.232025 1.97652 108 85 71
0.0550512 0.231598 1.97322 112 80 69
0.0831379 0.231172 1.96992 109 79 71
0.111225 0.230746 1.96662 110 87 73
0.139311 0.230319 1.96332 115 82 75
0.167398 0.229893 1.96002 106 77 69
0.197579 0.231429 1.97096 103 78 73
0.228144 0.232959 1.98186 94 71 63
0.256616 0.232527 1.97852 96 74 63
0.282416 0.230141 1.96099 93 65 54
0.310695 0.229712 1.95767 98 73 66
0.338975 0.229283 1.95435 110 76 74
0.367254 0.228853 1.95102 103 79 69
0.395533 0.228424 1.9477 108 85 71
0.423812 0.227995 1.94438 94 67 56
0.455918 0.229502 1.9551 101 77 67
0.484389 0.229069 1.95175 101 84 68
0.50865 0.226707 1.93441 85 65 54
0.536929 0.226278 1.93109 83 64 49
0.565208 0.225849 1.92776 75 53 40
0.588699 0.223498 1.91051 44 37 31
0.52179 0.186484 1.642 29 25 14
0.52736 0.179136 1.58855 34 34 26
0.536127 0.173448 1.54715 40 37 32
0.504118 0.154136 1.40703 41 30 34
0.515938 0.150681 1.38183 57 45 45
0.523729 0.146147 1.34883 57 45 47
0.531544 0.141898 1.31789 54 47 37
0.539015 0.137796 1.28803 47 43 31
0.540126 0.132082 1.24649 52 38 35
0.538219 0.125844 1.20117 56 53 38
0.539048 0.120704 1.16381 78 62 72
0.521142 0.110863 1.09242 128 122 98
0.522635 0.106568 1.06119 105 88 78
0.531321 0.104299 1.04464 102 41 57
0.535209 0.100964 1.02038 148 66 52
0.543522 0.0988441 1.00491 160 115 112
0.552026 0.0968634 0.990453 152 107 112
0.56253 0.095422 0.979903 82 54 53
0.570374 0.0934514 0.965525 28 19 24
0.585882 0.093216 0.963702 75 63 49
0.598866 0.0924491 0.958036 164 149 128
0.60594 0.0904901 0.943748 176 158 136
0.621214 0.0902583 0.941954 174 146 132
-0.911361 0.257754 1.98066 8 8 0
-0.88993 0.259459 1.99162 21 19 4
-0.872776 0.263103 2.01553 111 85 70
-0.840783 0.260587 1.99829 101 81 56
-0.81381 0.260177 1.99512 119 90 76
-0.791321 0.261866 2.00596 127 95 82
-0.764169 0.261454 2.00277 114 92 68
-0.73289 0.258949 1.98561 125 100 80
-0.709865 0.26063 1.99639 131 103 89
-0.686482 0.262305 2.00712 128 101 74
-0.659152 0.26189 2.00391 127 99 60
-0.631821 0.261475 2.0007 121 101 66
-0.604491 0.26106 1.99749 123 95 73
-0.580449 0.262881 2.00918 127 101 88
-0.555802 0.264537 2.01977 122 94 83
-0.525403 0.262046 2.00271 120 94 79
-0.49788 0.261628 1.99948 125 97 75
-0.470357 0.26121 1.99625 133 110 96
-0.440507 0.258571 1.97822 128 97 79
-0.415311 0.260375 1.98978 127 104 86
-0.387788 0.259957 1.98654 124 95 79
-0.358515 0.257326 1.96859 123 92 72
-0.329739 0.25486 1.95172 121 95 72
-0.305219 0.258704 1.97684 127 93 91
-0.277696 0.258286 1.97361 116 91 87
-0.250173 0.257868 1.97037 114 88 65
-0.22265 0.25745 1.96714 119 89 81
-0.195127 0.257032 1.96391 119 91 77
-0.167603 0.256615 1.96067 130 102 91
-0.14008 0.256197 1.95744 123 92 74
-0.11254 0.253593 1.93968 115 82 73
-0.0850343 0.255361 1.95097 114 91 73
-0.0575112 0.254943 1.94774 124 92 79
-0.0299882 0.254526 1.9445 123 94 78
-0.00246514 0.254108 1.94127 120 87 78
0.0250579 0.25369 1.93803 114 87 76
0.052581 0.253272 1.9348 107 78 60
0.0813391 0.254866 1.9449 110 78 65
0.107627 0.252437 1.92833 111 86 64
0.13515 0.252019 1.9251 106 82 72
0.162673 0.251601 1.92186 115 81 72
0.194246 0.255338 1.94615 105 79 66
0.219848 0.252763 1.92863 100 79 60
0.250035 0.254491 1.9396 103 76 65
0.275251 0.251922 1.92212 105 77 63
0.302953 0.251502 1.91886 97 73 49
0.333717 0.253221 1.92976 107 81 58
0.358357 0.250661 1.91235 98 70 56
0.389506 0.252374 1.92321 95 69 56
0.41376 0.24982 1.90584 93 71 57
0.445294 0.251527 1.91665 92 65 58
0.473189 0.251104 1.91338 101 74 63
0.501083 0.25068 1.9101 91 68 60
0.528977 0.250257 1.90682 88 70 50
0.552269 0.247717 1.88957 79 60 43
0.579971 0.247297 1.88631 62 48 37
0.598055 0.242806 1.85619 22 19 14
0.535486 0.20581 1.61155 27 29 18
0.536837 0.196576 1.55021 40 36 37
0.541733 0.189319 1.50193 37 32 29
0.510001 0.169188 1.36878 45 35 33
0.518409 0.164532 1.33772 50 39 35
0.529091 0.160934 1.31365 58 48 38
0.536453 0.15645 1.28375 58 49 42
0.540714 0.151232 1.24903 64 44 45
0.547428 0.14707 1.22128 63 48 41
0.542565 0.139649 1.17207 56 40 25
0.540442 0.133435 1.13084 91 83 62
0.523148 0.123235 1.0634 112 95 77
0.529687 0.120169 1.04292 112 48 38
0.535705 0.11711 1.02251 119 26 37
0.53895 0.113469 0.998282 145 63 65
0.547325 0.111312 0.983818 161 119 121
0.555342 0.109161 0.969395 176 107 112
0.56602 0.107749 0.959844 96 55 59
0.575861 0.106194 0.949355 47 36 18
0.58861 0.105376 0.943709 166 150 116
0.601249 0.10456 0.938076 178 151 132
0.611144 0.10316 0.928617 176 148 127
-0.915916 0.286616 1.99831 86 75 43
-0.883915 0.283922 1.98105 103 86 70
-0.857285 0.283517 1.97792 114 96 72
-0.830656 0.283113 1.97479 115 91 63
-0.804026 0.282709 1.97166 123 96 89
-0.781875 0.284581 1.98256 138 105 88
-0.755067 0.284174 1.97941 125 97 83
-0.728259 0.283767 1.97626 117 92 72
-0.701451 0.28336 1.97311 122 96 83
-0.674643 0.282953 1.96996 122 91 86
-0.647835 0.282547 1.96681 126 98 86
-0.624171 0.284226 1.9765 124 94 84
-0.594218 0.281733 1.96051 129 97 76
-0.56741 0.281326 1.95736 131 104 85
-0.546121 0.28525 1.98083 118 90 78
-0.51897 0.284837 1.97764 118 96 75
-0.489305 0.282179 1.96065 123 91 80
-0.462332 0.281769 1.95748 129 97 86
-0.435359 0.28136 1.95431 126 102 92
-0.408386 0.28095 1.95114 125 98 77
-0.381412 0.280541 1.94797 120 91 77
-0.354439 0.280132 1.9448 123 94 78
-0.327466 0.279722 1.94163 120 95 88
-0.300493 0.279313 1.93847 116 91 86
-0.274603 0.281128 1.94893 119 92 71
-0.247451 0.280716 1.94574 125 94 91
-0.220299 0.280304 1.94255 121 93 82
-0.193147 0.279892 1.93936 131 98 83
-0.165627 0.277265 1.92262 129 97 84
-0.138654 0.276856 1.91945 121 94 77
-0.111692 0.278655 1.92979 128 96 85
-0.0847078 0.276037 1.91311 129 102 85
-0.0573878 0.277831 1.92341 124 90 81
-0.0302359 0.277419 1.92022 120 93 76
-0.00308407 0.277007 1.91702 119 86 81
0.0240678 0.276594 1.91383 110 76 74
0.0522814 0.278375 1.92402 119 94 72
0.0783715 0.27577 1.90745 110 81 73
0.104104 0.273171 1.89093 118 87 82
0.132675 0.274946 1.90107 114 79 85
0.159827 0.274534 1.89788 110 76 66
0.188934 0.2763 1.90797 107 73 64
0.216265 0.275885 1.90476 111 85 72
0.243596 0.275471 1.90155 103 80 62
0.270926 0.275056 1.89833 109 87 74
0.298257 0.274641 1.89512 112 83 75
0.325587 0.274226 1.89191 104 77 68
0.34989 0.271649 1.87555 114 80 79
0.377042 0.271236 1.87236 101 75 62
0.407579 0.272981 1.88228 108 84 72
0.43491 0.272566 1.87907 93 69 59
0.46224 0.272152 1.87585 91 69 58
0.485649 0.269588 1.8596 91 74 56
0.512801 0.269176 1.85641 86 65 44
0.539953 0.268764 1.85322 86 64 50
0.567105 0.268351 1.85003 65 51 38
0.589621 0.265801 1.83388 55 37 37
0.60289 0.259314 1.79388 28 23 17
0.541389 0.221345 1.56321 40 35 32
0.542424 0.211816 1.50491 49 41 39
0.510637 0.189875 1.37152 49 35 35
0.519033 0.184821 1.3404 61 52 53
0.526631 0.179779 1.30938 51 41 39
0.533885 0.174912 1.27944 50 40 39
0.541303 0.170383 1.25156 56 41 44
0.548005 0.165864 1.22376 55 49 35
0.549052 0.159732 1.18624 57 40 46
0.54403 0.151994 1.13904 52 37 30
0.545045 0.146542 1.10568 99 80 65
0.530192 0.136575 1.0451 93 24 17
0.533455 0.132449 1.01978 114 25 31
0.537185 0.128655 0.996486 131 36 32
0.54031 0.12487 0.973265 153 66 82
0.548143 0.122542 0.958839 176 106 116
0.561055 0.121667 0.953166 159 103 106
0.568915 0.119509 0.939777 128 112 87
0.578971 0.117997 0.930284 171 154 134
0.588807 0.116489 0.920817 180 155 133
0.60106 0.115623 0.915222 173 158 125
-0.904774 0.308619 1.97462 102 80 56
-0.883098 0.310493 1.98456 102 75 56
-0.846835 0.305353 1.95428 110 85 65
-0.816091 0.302683 1.93818 120 96 68
-0.78997 0.302286 1.93511 123 99 89
-0.763849 0.30189 1.93204 126 93 88
-0.741692 0.303757 1.94193 116 88 67
-0.715407 0.303358 1.93884 126 92 90
-0.689121 0.302959 1.93575 117 90 69
-0.662835 0.30256 1.93266 118 98 74
-0.636549 0.302161 1.92957 116 97 80
-0.610264 0.301762 1.92649 123 93 91
-0.583978 0.301363 1.9234 133 104 88
-0.557692 0.300964 1.92031 129 96 89
-0.531407 0.300565 1.91722 126 98 84
-0.507807 0.302593 1.92798 119 97 83
-0.481342 0.302192 1.92487 130 103 92
-0.454878 0.30179 1.92176 128 97 77
-0.428413 0.301388 1.91865 125 90 86
-0.401949 0.300986 1.91554 119 86 77
-0.375484 0.300585 1.91243 126 92 83
-0.34902 0.300183 1.90932 114 84 76
-0.322555 0.299781 1.90621 120 91 83
-0.29725 0.3016 1.91573 117 93 83
-0.270621 0.301196 1.9126 118 88 80
-0.243162 0.298576 1.89688 117 91 58
-0.217362 0.300388 1.90634 131 93 84
-0.190733 0.299984 1.90321 116 95 76
-0.164103 0.299579 1.90008 119 94 74
-0.137474 0.299175 1.89695 126 92 91
-0.110844 0.298771 1.89382 129 105 79
-0.084375 0.296166 1.87822 129 97 84
-0.0575853 0.297962 1.88756 124 91 86
-0.0309558 0.297558 1.88444 124 95 87
-0.00432638 0.297154 1.88131 120 91 83
0.0223031 0.29675 1.87818 117 91 68
0.0489325 0.296346 1.87505 118 91 74
0.075562 0.295941 1.87192 117 88 72
0.102191 0.295537 1.86879 121 89 78
0.128821 0.295133 1.86566 116 89 70
0.15545 0.294729 1.86253 109 79 69
0.184041 0.296681 1.8727 102 76 59
0.210849 0.296275 1.86955 107 79 67
0.237657 0.295868 1.8664 109 79 68
0.264465 0.295461 1.86325 109 81 67
0.291273 0.295054 1.8601 110 82 70
0.315227 0.292303 1.84376 111 79 64
0.34489 0.29424 1.8538 106 83 65
0.371698 0.293833 1.85065 102 79 71
0.398506 0.293426 1.8475 103 80 64
0.425314 0.293019 1.84435 106 79 68
0.455582 0.294763 1.85329 102 73 59
0.482555 0.294353 1.85012 95 70 65
0.505739 0.291798 1.8349 93 69 59
0.528263 0.28907 1.81873 91 69 58
0.554892 0.288665 1.8156 75 49 52
0.577237 0.286123 1.80048 62 40 42
0.603701 0.285721 1.79737 36 22 19
0.538259 0.242833 1.55633 37 28 29
0.543116 0.234314 1.50789 43 38 44
0.551241 0.227764 1.47051 33 25 22
0.51625 0.203692 1.33516 49 38 32
0.524166 0.198431 1.30509 60 46 43
0.531765 0.193358 1.2761 66 55 53
0.538622 0.188297 1.24719 61 50 46
0.545698 0.1836 1.22035 53 47 51
0.552581 0.179089 1.19456 55 41 32
