ply
format ascii 1.0
element vertex 1293
property float x
property float y
property float z
property uchar red
property uchar green
property uchar blue
end_header
0.121123 -0.216533 2.39979 98 81 63
0.156004 -0.216907 2.39484 96 78 66
0.190885 -0.21728 2.38989 100 83 73
0.225766 -0.217654 2.38493 96 82 71
0.260646 -0.218027 2.37998 106 84 70
0.299217 -0.219823 2.39678 110 92 82
0.334399 -0.220199 2.39178 105 86 79
0.373875 -0.222005 2.40845 98 80 68
0.404764 -0.220953 2.38179 101 84 74
0.439946 -0.22133 2.37679 109 90 83
0.480326 -0.223145 2.39333 107 86 81
0.51581 -0.223525 2.38829 91 76 71
0.545493 -0.22246 2.3618 84 68 55
0.574573 -0.221388 2.33539 60 47 38
0.531869 -0.197737 1.96777 24 20 17
0.542264 -0.194015 1.90452 27 22 16
0.538032 -0.187684 1.80386 33 26 20
0.509613 -0.177197 1.64384 46 37 40
0.519186 -0.174534 1.59792 47 37 27
0.527927 -0.171925 1.55313 44 37 29
0.532394 -0.168767 1.50085 52 41 37
0.544278 -0.167071 1.4698 95 84 78
0.500248 -0.156417 1.31199 156 138 118
0.514285 -0.155562 1.2938 163 148 119
0.522139 -0.153823 1.26331 168 151 131
0.532388 -0.15255 1.23958 174 157 141
0.545788 -0.151814 1.2235 176 160 137
0.555423 -0.150597 1.20086 182 163 133
0.568455 -0.149919 1.18585 177 159 123
0.584194 -0.149648 1.17652 177 160 130
0.600265 -0.149443 1.16816 183 169 134
0.615633 -0.149167 1.15889 174 155 125
0.631361 -0.148959 1.15058 167 149 125
0.646925 -0.148748 1.1423 159 143 118
0.661745 -0.148467 1.1331 168 150 112
0.680522 -0.148668 1.13044 172 154 130
0.692023 -0.148037 1.11665 175 151 125
0.706915 -0.147819 1.10846 158 141 113
0.721643 -0.1476 1.10029 159 144 105
0.740091 -0.147797 1.09767 167 143 119
0.774405 -0.149673 1.1171 172 153 120
0.797906 -0.150365 1.12085 180 154 119
-1.02711 -0.156171 2.29455 135 117 107
-0.995934 -0.156504 2.29012 130 113 106
-0.970981 -0.157608 2.30383 134 122 110
-0.939568 -0.157944 2.29937 139 124 117
-0.914255 -0.1591 2.31404 139 122 112
-0.888449 -0.160262 2.32865 141 128 109
-0.856543 -0.160604 2.32411 147 130 122
-0.835655 -0.162647 2.3587 145 130 127
-0.797843 -0.162117 2.33405 154 130 120
-0.770828 -0.163341 2.34949 153 136 128
-0.733537 -0.162806 2.32491 152 135 128
-0.701383 -0.16315 2.32034 126 109 102
-0.566972 -0.142652 1.8486 39 31 20
-0.540931 -0.142931 1.8449 31 23 20
-0.519937 -0.144386 1.86729 36 30 30
-0.491108 -0.144055 1.85 34 28 32
-0.467171 -0.144951 1.8598 35 28 10
-0.440787 -0.145233 1.85605 28 20 17
-0.414404 -0.145516 1.8523 34 24 22
-0.389621 -0.146371 1.86096 36 27 20
-0.363073 -0.146655 1.85719 35 28 20
-0.337903 -0.147564 1.86681 37 25 27
-0.312283 -0.148429 1.87535 32 28 19
-0.286414 -0.149345 1.88487 38 28 29
-0.259345 -0.149635 1.88102 35 25 23
-0.232277 -0.149925 1.87718 35 25 26
-0.205208 -0.150215 1.87333 33 23 21
-0.178448 -0.15114 1.88273 40 33 23
-0.151201 -0.151432 1.87886 31 26 23
-0.123954 -0.151724 1.87499 37 26 30
-0.0967074 -0.152016 1.87112 27 17 18
-0.0694607 -0.152307 1.86725 29 22 16
-0.0415863 -0.153294 1.8775 27 19 16
-0.0141477 -0.153588 1.8736 39 30 25
0.0525197 -0.18101 2.41523 50 43 37
0.0874005 -0.181383 2.41028 72 53 46
0.122281 -0.181756 2.40532 75 61 52
0.157162 -0.18213 2.40037 81 58 52
0.192043 -0.182503 2.39542 74 55 49
0.223967 -0.181812 2.36957 82 62 51
0.25856 -0.182183 2.36465 81 58 50
0.296685 -0.183624 2.38055 79 61 51
0.331566 -0.183997 2.3756 83 59 49
0.362339 -0.183294 2.34991 88 63 56
0.396932 -0.183664 2.345 91 64 57
0.431525 -0.184034 2.34009 94 66 54
0.461147 -0.183319 2.31457 88 66 55
0.495452 -0.183686 2.30969 78 61 41
0.529757 -0.184053 2.30482 74 59 38
0.558228 -0.183325 2.27946 71 52 45
0.592245 -0.183689 2.27463 35 31 19
0.532859 -0.168003 1.9725 31 25 29
0.548011 -0.165903 1.92366 31 22 23
0.543606 -0.160888 1.82178 35 31 30
0.516049 -0.149231 1.59125 49 47 32
0.520882 -0.146676 1.53677 49 40 35
0.533174 -0.145332 1.50458 53 38 33
0.537823 -0.14307 1.45622 44 36 34
0.497622 -0.135163 1.30766 120 104 78
0.511971 -0.134579 1.2904 160 149 119
0.519274 -0.133182 1.25891 165 148 120
0.526667 -0.131884 1.22944 157 141 115
0.53658 -0.130957 1.20672 153 140 123
0.546401 -0.130078 1.18503 171 153 133
0.559154 -0.129575 1.17002 175 160 141
0.568485 -0.128741 1.14941 169 152 122
0.580968 -0.128284 1.13546 174 152 138
0.59958 -0.128484 1.13282 169 150 118
0.618192 -0.128683 1.13017 168 149 132
0.63341 -0.128551 1.12192 174 158 124
0.648464 -0.128417 1.1137 171 148 117
0.663354 -0.128281 1.10549 164 147 121
0.681719 -0.128478 1.10288 173 150 118
0.696362 -0.128339 1.09471 168 153 124
0.707035 -0.127863 1.08102 174 155 123
0.725154 -0.128057 1.07845 175 149 116
0.739303 -0.127914 1.07035 157 141 118
0.761391 -0.128445 1.0733 164 144 109
-1.03276 -0.125615 2.31774 63 54 47
-1.00135 -0.125952 2.31327 86 76 64
-0.969939 -0.126288 2.30881 111 92 94
-0.944864 -0.127196 2.32356 128 112 99
-0.913204 -0.127535 2.31906 124 105 91
-0.88739 -0.12845 2.3337 124 106 102
-0.855484 -0.128792 2.32917 138 118 109
-0.834579 -0.13033 2.36384 137 118 103
-0.802165 -0.130677 2.35923 142 119 111
-0.764623 -0.130404 2.33458 143 126 116
-0.742206 -0.131994 2.37004 136 120 104
-0.709532 -0.132343 2.3654 129 112 94
-0.566107 -0.116689 1.85273 37 31 33
-0.545445 -0.117799 1.87522 37 26 20
-0.521479 -0.118481 1.88402 40 34 20
-0.492678 -0.118363 1.86773 44 34 22
-0.466295 -0.118646 1.86398 40 28 32
-0.441835 -0.119334 1.87271 33 26 16
-0.417193 -0.12006 1.88243 39 30 21
-0.392062 -0.120755 1.89107 39 25 22
-0.363741 -0.120632 1.87484 40 30 28
-0.338281 -0.121331 1.88343 41 31 29
-0.311391 -0.121618 1.87961 38 31 23
-0.285515 -0.122357 1.88916 35 24 18
-0.259283 -0.1231 1.89866 40 31 26
-0.232037 -0.123392 1.89479 32 23 14
-0.20479 -0.123683 1.89092 36 28 25
-0.177543 -0.123975 1.88705 36 26 16
-0.150296 -0.124267 1.88318 32 24 22
-0.122991 -0.125056 1.89354 34 25 20
-0.0955527 -0.12535 1.88964 35 24 18
-0.0681141 -0.125644 1.88574 31 24 14
-0.0406755 -0.125938 1.88185 25 16 17
-0.01247 -0.126701 1.89106 34 24 22
0.0476434 -0.14322 2.3372 43 33 24
0.0813866 -0.143582 2.3324 55 40 35
0.11513 -0.143943 2.32761 60 43 33
0.151149 -0.145039 2.34284 69 47 33
0.182616 -0.144665 2.31802 75 55 54
0.216359 -0.145027 2.31323 70 50 41
0.250102 -0.145388 2.30844 70 50 41
0.287218 -0.146496 2.32351 72 52 43
0.317589 -0.14611 2.29885 77 52 45
0.351332 -0.146472 2.29406 75 59 44
0.385075 -0.146833 2.28927 80 59 54
0.418818 -0.147194 2.28448 86 69 51
0.452561 -0.147556 2.27968 82 64 44
0.486305 -0.147917 2.27489 76 58 48
0.520048 -0.148278 2.2701 81 63 51
0.553791 -0.148639 2.2653 75 55 54
0.593374 -0.149773 2.28003 56 41 34
0.609049 -0.14781 2.21677 22 17 14
0.54898 -0.136797 1.92829 28 27 22
0.544529 -0.133162 1.82619 27 26 21
0.55361 -0.131341 1.76997 31 22 27
0.50533 -0.123402 1.56424 47 40 34
0.521676 -0.122831 1.54056 45 34 32
0.530463 -0.12154 1.49965 55 42 36
0.538582 -0.120277 1.45984 40 33 25
0.546076 -0.119043 1.42114 56 50 38
0.512654 -0.114068 1.29366 142 122 113
0.516844 -0.112799 1.25543 108 95 79
0.524128 -0.111883 1.22591 86 75 69
0.531115 -0.110998 1.19746 117 105 93
0.537846 -0.110147 1.17005 106 92 83
0.550332 -0.109819 1.15506 111 96 89
0.562973 -0.109528 1.14106 155 139 116
0.572136 -0.108987 1.12145 167 152 119
0.584037 -0.108688 1.10755 179 156 138
0.602238 -0.108883 1.10496 175 160 127
0.617043 -0.108829 1.09676 167 148 116
0.628204 -0.108522 1.08297 172 151 122
0.64319 -0.108505 1.07575 173 155 131
0.664112 -0.108906 1.07787 162 136 111
0.678962 -0.108888 1.07067 148 113 94
0.696848 -0.109079 1.06813 161 125 101
0.714734 -0.109271 1.06559 157 119 98
0.728647 -0.109207 1.05751 119 39 32
0.750505 -0.109654 1.06051 124 39 44
-1.03172 -0.0942957 2.32272 22 22 14
-1.00713 -0.0949522 2.33757 27 27 15
-0.956471 -0.0943586 2.27737 17 17 5
-0.943814 -0.0956302 2.32858 115 99 86
-0.912153 -0.0959691 2.32408 122 100 89
-0.886331 -0.0966388 2.33876 123 107 91
-0.854425 -0.0969804 2.33423 123 99 71
-0.833503 -0.0980127 2.36898 126 108 94
-0.790611 -0.0976636 2.32517 125 107 85
-0.768676 -0.0987068 2.35977 127 94 89
-0.736262 -0.0990538 2.35517 123 92 87
-0.694891 -0.0986884 2.31157 122 97 93
-0.570952 -0.0912114 1.88315 47 33 33
-0.544569 -0.0914939 1.8794 33 24 25
-0.52321 -0.0922687 1.90185 34 30 29
-0.498731 -0.092793 1.91061 38 31 23
-0.47184 -0.0930808 1.90679 32 31 26
-0.44495 -0.0933687 1.90297 36 28 15
-0.41806 -0.0936566 1.89915 36 26 24
-0.391169 -0.0939445 1.89533 31 27 16
-0.365822 -0.0944999 1.90499 35 29 29
-0.338754 -0.0947897 1.90114 37 28 21
-0.311685 -0.0950795 1.8973 31 23 20
-0.285626 -0.0956425 1.90685 30 21 12
-0.259274 -0.0962305 1.91738 31 22 27
-0.231835 -0.0965243 1.91348 29 21 18
-0.204396 -0.096818 1.90958 36 27 20
-0.176958 -0.0971118 1.90568 36 29 21
-0.149637 -0.0976883 1.91506 40 32 30
-0.121956 -0.0982905 1.92539 34 25 16
-0.0944036 -0.0982797 1.90721 38 29 22
-0.0663383 -0.098886 1.9175 37 28 29
-0.0378893 -0.0994964 1.92773 27 19 17
-0.010721 -0.0994814 1.9096 37 25 25
0.0181118 -0.100096 1.91977 44 29 24
0.0790322 -0.109028 2.29747 54 35 31
0.112227 -0.109383 2.29276 59 43 27
0.14108 -0.108862 2.24992 69 50 43
0.178617 -0.110094 2.28333 73 53 42
0.20912 -0.110006 2.25962 82 60 49
0.242055 -0.110358 2.25495 59 45 34
0.278202 -0.11116 2.26918 69 49 38
0.311397 -0.111516 2.26447 72 55 39
0.344592 -0.111871 2.25975 82 64 52
0.373793 -0.111769 2.23624 79 59 50
0.406727 -0.112121 2.23156 83 58 53
0.439662 -0.112474 2.22688 78 58 51
0.472596 -0.112826 2.2222 74 56 44
0.505531 -0.113179 2.21752 80 61 57
0.533169 -0.11306 2.19423 74 55 51
0.576956 -0.114359 2.22675 66 47 33
0.598518 -0.11376 2.18495 43 36 30
0.540353 -0.106932 1.9037 21 18 13
0.545452 -0.105436 1.8306 36 30 30
0.549994 -0.104021 1.76165 34 30 27
0.518723 -0.0987271 1.53469 48 39 30
0.531239 -0.0982276 1.50335 46 35 43
0.539341 -0.0974841 1.46346 43 38 35
0.543491 -0.0965455 1.417 42 36 36
0.550703 -0.0958581 1.3803 47 45 32
0.508203 -0.0922354 1.23852 80 69 65
0.518385 -0.0918857 1.21567 113 95 93
0.525638 -0.0913953 1.18814 87 79 68
0.532179 -0.0908973 1.1607 84 78 64
0.544979 -0.0907722 1.14665 159 144 121
0.55438 -0.0904796 1.12697 175 157 135
0.563288 -0.0901818 1.10735 174 154 127
0.578171 -0.0902101 1.09912 170 149 122
0.592891 -0.0902366 1.09091 169 151 127
0.604613 -0.0901218 1.07804 171 151 118
0.622417 -0.0903124 1.07551 179 157 120
0.633687 -0.0901927 1.06269 177 154 136
0.647693 -0.0902116 1.05459 185 146 129
0.662157 -0.0902572 1.04744 176 120 129
0.676484 -0.0903014 1.0403 172 123 126
0.697161 -0.090632 1.04246 152 87 91
0.714663 -0.0908194 1.03998 159 83 85
0.735546 -0.0911522 1.04211 141 56 53
-0.967853 -0.0636488 2.31877 45 28 21
-0.93644 -0.0639851 2.31431 104 75 61
-0.899288 -0.0642439 2.29167 117 92 72
-0.879443 -0.0647425 2.3246 116 90 67
-0.847783 -0.0650814 2.32011 119 93 68
-0.810787 -0.0653304 2.29646 108 86 63
-0.784463 -0.0657594 2.31111 107 89 77
-0.752803 -0.0660983 2.30662 113 91 78
-0.721143 -0.0664373 2.30212 107 87 60
-0.685134 -0.0666757 2.27862 109 89 64
-0.570077 -0.0649068 1.88733 34 29 23
-0.549048 -0.0653363 1.90989 35 31 22
-0.522323 -0.0656224 1.90609 23 19 18
-0.497838 -0.0659827 1.91487 37 29 26
-0.470948 -0.0662706 1.91105 40 30 31
-0.444058 -0.0665585 1.90724 36 26 34
-0.417167 -0.0668464 1.90342 35 25 16
-0.391992 -0.0672222 1.91312 34 25 20
-0.364924 -0.067512 1.90928 35 31 28
-0.337855 -0.0678018 1.90543 28 25 20
-0.310787 -0.0680916 1.90159 31 28 21
-0.284721 -0.068477 1.91117 30 21 26
-0.258363 -0.0688737 1.92173 28 22 10
-0.230924 -0.0691674 1.91783 26 17 18
-0.203954 -0.0695625 1.92728 34 24 23
-0.176337 -0.0698581 1.92336 34 22 26
-0.148841 -0.070267 1.93375 35 26 17
-0.121033 -0.0705647 1.9298 28 23 17
-0.0932239 -0.0708624 1.92585 31 26 23
-0.0649604 -0.0712795 1.93614 33 25 22
-0.0369599 -0.0715793 1.93217 28 21 11
-0.00895934 -0.0718791 1.92819 28 24 15
0.0200717 -0.0723044 1.93837 40 30 21
0.0751572 -0.0754125 2.24521 52 42 30
0.107571 -0.0757595 2.2406 64 47 31
0.139985 -0.0761065 2.236 68 50 40
0.172398 -0.0764536 2.23139 70 48 35
0.204812 -0.0768006 2.22679 72 55 47
0.234265 -0.0769606 2.2032 74 56 46
0.272861 -0.0776845 2.23654 76 55 50
0.302053 -0.0778417 2.21298 70 53 43
0.338209 -0.0783842 2.22725 77 55 42
0.370883 -0.078734 2.22261 87 65 54
0.399294 -0.0788828 2.19917 88 66 55
0.431708 -0.0792298 2.19456 88 69 54
0.459338 -0.0793703 2.17123 94 74 63
0.491491 -0.0797145 2.16666 86 66 59
0.523645 -0.0800588 2.16209 86 66 59
0.555798 -0.080403 2.15753 69 50 36
0.587951 -0.0807473 2.15296 55 45 33
0.546375 -0.0777102 1.83501 28 24 21
0.555407 -0.0773654 1.77856 26 21 18
0.555368 -0.0767517 1.70194 33 27 29
0.515761 -0.0748968 1.52878 42 35 27
0.528126 -0.0747921 1.4974 48 39 42
0.536075 -0.0745665 1.45744 44 33 37
0.54423 -0.0743676 1.42053 56 41 44
0.547986 -0.0740562 1.37607 45 33 35
0.551451 -0.0737581 1.33369 72 57 50
0.516287 -0.0723759 1.21302 138 116 103
0.522976 -0.0722268 1.18449 158 143 114
0.529893 -0.0720964 1.15796 167 151 125
0.539615 -0.0720533 1.13819 153 137 112
0.548843 -0.072005 1.11849 153 135 111
0.560734 -0.0720341 1.10454 167 151 125
0.566899 -0.0719203 1.08119 167 150 122
0.581314 -0.0720255 1.07301 175 160 137
0.59273 -0.0720578 1.06015 176 155 128
0.60094 -0.0720149 1.04264 169 154 125
0.611685 -0.07204 1.02988 180 154 137
0.628817 -0.0722234 1.02745 170 133 117
0.642839 -0.0723327 1.02035 169 112 103
0.663081 -0.0725903 1.02258 180 112 125
0.684108 -0.0728644 1.02572 181 111 121
0.69403 -0.0728807 1.01307 169 92 100
0.718536 -0.073233 1.02083 161 87 104
-0.917506 -0.0331371 2.26453 107 87 76
-0.886792 -0.0334659 2.26017 104 81 65
-0.861575 -0.0336426 2.27399 110 88 67
-0.830628 -0.0339739 2.2696 120 93 86
-0.799681 -0.0343052 2.2652 113 90 72
-0.768734 -0.0346366 2.26081 116 90 73
-0.73322 -0.0351101 2.23836 122 90 75
-0.706839 -0.0352992 2.25202 109 86 80
-0.675892 -0.0356306 2.24762 113 83 72
-0.548161 -0.03869 1.91413 34 22 22
-0.526437 -0.0387852 1.93664 26 25 21
-0.499368 -0.039075 1.93279 32 23 26
-0.4723 -0.0393648 1.92895 35 24 22
-0.445231 -0.0396546 1.9251 36 35 17
-0.418162 -0.0399444 1.92126 38 26 28
-0.391094 -0.0402342 1.91741 38 27 21
-0.365557 -0.0404362 1.9271 31 28 19
-0.33831 -0.040728 1.92323 26 21 18
-0.312329 -0.0409292 1.93387 30 23 17
-0.284891 -0.041223 1.92997 37 33 32
-0.259153 -0.0413502 1.95396 32 23 24
-0.231344 -0.041648 1.95001 30 27 22
-0.203535 -0.0419457 1.94606 28 20 18
-0.175727 -0.0422434 1.94211 35 27 24
-0.148033 -0.042463 1.95251 29 19 17
-0.120032 -0.0427628 1.94854 27 23 12
-0.0923009 -0.0431366 1.93026 34 30 18
-0.0644922 -0.0434343 1.92631 33 22 18
-0.0353773 -0.0435922 1.95085 28 16 16
-0.0071849 -0.0438941 1.94684 28 24 21
0.0210075 -0.0441959 1.94284 39 29 19
0.0714057 -0.0433457 2.19472 58 41 34
0.103066 -0.0436847 2.19022 65 49 34
0.134726 -0.0440237 2.18572 66 48 34
0.166385 -0.0443626 2.18123 73 55 41
0.198045 -0.0447016 2.17673 71 52 45
0.226892 -0.0451093 2.1542 76 49 38
0.261365 -0.0453795 2.16774 75 58 48
0.293025 -0.0457185 2.16324 82 65 57
0.324685 -0.0460574 2.15874 85 63 50
0.356345 -0.0463964 2.15425 97 70 59
0.388005 -0.0467354 2.14975 92 69 63
0.419665 -0.0470743 2.14525 91 70 49
0.451325 -0.0474133 2.14076 92 72 63
0.482985 -0.0477523 2.13626 87 65 51
0.514645 -0.0480912 2.13176 82 60 47
0.551585 -0.0483878 2.14495 71 50 49
0.577964 -0.0487691 2.12277 37 35 23
0.609624 -0.0491081 2.11827 30 20 28
0.556305 -0.0503774 1.78285 38 26 26
0.556233 -0.0507887 1.70607 33 28 24
0.569128 -0.051119 1.6684 32 27 23
0.521501 -0.0516418 1.48268 52 44 42
0.533202 -0.0519209 1.45235 50 41 44
0.544968 -0.0521897 1.42406 52 39 48
0.552148 -0.0524588 1.3872 50 43 33
0.555704 -0.0527221 1.34472 56 45 41
0.559051 -0.0529722 1.30431 107 96 76
0.520778 -0.0532491 1.18176 146 132 119
0.530514 -0.0534577 1.16093 165 148 120
0.540227 -0.0536605 1.14112 153 137 101
0.543296 -0.0538582 1.10996 163 150 116
0.552384 -0.0540489 1.09127 170 150 123
0.561007 -0.0542346 1.07264 175 153 130
0.575809 -0.0544205 1.06542 181 155 122
0.584231 -0.0545986 1.04784 176 157 125
0.592215 -0.054772 1.03032 170 152 128
0.606304 -0.0549503 1.0232 168 154 125
0.617214 -0.055122 1.01141 178 160 138
0.627849 -0.0552908 0.999663 176 155 126
0.644569 -0.0554698 0.997288 174 148 123
0.658042 -0.0556415 0.990255 181 150 130
0.678011 -0.0558278 0.992538 169 120 124
0.701503 -0.0560244 0.99944 164 93 109
-0.818687 -0.0103259 1.89329 26 16 17
-0.899319 -0.00363718 2.21668 107 87 76
-0.86389 -0.0043231 2.19523 98 81 71
-0.844401 -0.00391853 2.2253 110 82 71
-0.814139 -0.00424253 2.221 118 91 82
-0.783877 -0.00456653 2.2167 117 87 77
-0.753615 -0.00489052 2.21241 123 97 72
-0.723353 -0.00521452 2.20811 112 89 73
-0.693091 -0.00553851 2.20381 109 91 67
-0.658978 -0.00621036 2.18255 113 86 67
-0.636199 -0.00584102 2.21215 57 44 27
-0.549834 -0.0117863 1.93104 27 22 16
-0.528133 -0.0115204 1.95464 24 19 15
-0.49847 -0.0120872 1.93708 34 20 17
-0.471401 -0.012377 1.93324 32 22 21
-0.446393 -0.0123956 1.94303 37 30 20
-0.419146 -0.0126873 1.93916 30 21 16
-0.393734 -0.0126911 1.94991 32 28 19
-0.366296 -0.0129848 1.94601 23 16 8
-0.338857 -0.0132786 1.94212 33 23 13
-0.311418 -0.0135724 1.93822 28 20 17
-0.286038 -0.0133267 1.96232 30 23 17
-0.259105 -0.0133468 1.97286 33 23 21
-0.231105 -0.0136466 1.96888 28 23 19
-0.203104 -0.0139464 1.96491 30 25 22
-0.174804 -0.0145176 1.94652 33 24 19
-0.147211 -0.0142765 1.97133 32 23 18
-0.119103 -0.0148457 1.95297 32 27 24
-0.0911021 -0.0151455 1.949 36 27 28
-0.0626339 -0.015182 1.95932 32 21 25
-0.033782 -0.0152226 1.96959 27 19 16
-0.0062491 -0.0157857 1.95131 32 28 17
0.0219433 -0.0160875 1.94731 41 31 29
0.0678689 -0.0127275 2.14703 55 39 26
0.0988161 -0.0130588 2.14264 63 45 33
0.129763 -0.0133901 2.13824 74 50 38
0.160711 -0.0137215 2.13384 70 48 37
0.191658 -0.0140528 2.12945 77 55 42
0.21994 -0.0146814 2.10799 71 53 43
0.253552 -0.0147155 2.12066 83 64 50
0.284499 -0.0150468 2.11626 84 66 56
0.315447 -0.0153781 2.11187 81 63 53
0.346394 -0.0157095 2.10747 103 76 67
0.377341 -0.0160408 2.10308 90 66 56
0.404226 -0.0166544 2.08181 88 64 54
0.439236 -0.0167035 2.09428 98 75 67
0.470183 -0.0170348 2.08989 101 72 68
0.496368 -0.0176409 2.06873 87 70 50
0.532077 -0.0176975 2.0811 80 60 51
0.563025 -0.0180288 2.0767 81 57 57
0.593972 -0.0183601 2.07231 57 44 28
0.613532 -0.0192211 2.03464 37 31 19
0.548488 -0.0237753 1.76272 22 14 11
0.561445 -0.0246422 1.72189 28 21 15
0.557191 -0.0261489 1.63938 39 29 28
0.522264 -0.028726 1.48632 42 30 32
0.52669 -0.0296549 1.43849 54 43 37
0.541952 -0.0301441 1.41888 54 41 48
0.549423 -0.0308756 1.38293 50 41 42
0.556407 -0.0315827 1.34808 49 42 34
0.556529 -0.0324655 1.30086 50 41 44
0.527543 -0.0341673 1.19724 89 72 62
0.531134 -0.0348189 1.16389 167 147 122
0.534847 -0.0354336 1.13258 159 140 123
0.540816 -0.0359574 1.1071 172 152 127
0.550341 -0.036366 1.08933 162 145 129
0.556185 -0.0368501 1.06593 171 155 121
0.567522 -0.0371823 1.05303 177 163 137
0.578558 -0.0375112 1.04018 174 156 132
0.586966 -0.0378887 1.02359 175 158 132
0.594962 -0.0382617 1.00706 179 154 134
0.611683 -0.0384408 1.00469 172 157 126
0.622176 -0.0387447 0.992938 178 159 129
0.635578 -0.038984 0.985904 182 157 127
0.646241 -0.0392707 0.975154 169 154 115
0.655995 -0.0395667 0.963508 170 155 124
0.679025 -0.0396217 0.970498 162 141 114
-0.855895 0.0147315 1.86681 8 8 8
-0.822192 0.0159138 1.91036 19 17 20
-0.887125 0.0251455 2.18695 99 79 70
-0.852478 0.024282 2.1666 100 80 69
-0.827917 0.0245116 2.17854 115 92 78
-0.803253 0.0247728 2.19149 114 87 60
-0.768709 0.0238777 2.17013 111 90 71
-0.743607 0.0241342 2.18302 120 93 84
-0.713783 0.0238149 2.17878 110 85 80
-0.68396 0.0234956 2.17455 111 84 77
-0.654136 0.0231763 2.17031 107 87 63
-0.624313 0.022857 2.16607 83 59 55
-0.548941 0.0150239 1.9353 33 28 32
-0.530016 0.0161346 1.97375 23 15 26
-0.502578 0.0158408 1.96985 37 29 27
-0.477372 0.0159978 1.97964 29 18 26
-0.449755 0.0157021 1.97572 35 28 20
-0.422138 0.0154065 1.97179 36 22 19
-0.394521 0.0151108 1.96787 37 28 19
-0.366905 0.0148151 1.96395 41 31 30
-0.339288 0.0145194 1.96003 33 25 23
-0.311671 0.0142238 1.9561 36 22 22
-0.286176 0.0148701 1.98128 33 23 21
-0.258176 0.0145703 1.9773 37 27 26
-0.230175 0.0142705 1.97332 35 30 27
-0.202175 0.0139708 1.96935 32 26 26
-0.174174 0.013671 1.96537 29 21 18
-0.146174 0.0133712 1.96139 35 27 24
-0.118173 0.0130714 1.95741 32 22 20
-0.0898905 0.0132283 1.96779 33 24 19
-0.0612241 0.013381 1.97812 34 26 24
-0.0328398 0.0130771 1.97409 34 22 22
-0.00359778 0.0132237 1.98433 34 22 24
0.026103 0.0133982 1.99554 45 36 31
0.065881 0.0170435 2.1174 66 45 40
0.0947241 0.0162094 2.09685 77 57 48
0.124986 0.0158854 2.09255 77 52 55
0.155248 0.0155614 2.08826 67 49 37
0.180918 0.014236 2.0517 77 51 38
0.208226 0.0134183 2.03137 55 45 35
0.232703 0.0121712 1.99704 62 55 47
0.261896 0.0118587 1.9929 36 31 25
0.303385 0.0134501 2.05076 43 36 26
0.340212 0.0141064 2.07844 86 63 57
0.370693 0.0137801 2.07411 90 66 56
0.401175 0.0134538 2.06978 97 73 73
0.427606 0.0126455 2.04957 99 77 64
0.457867 0.0123215 2.04527 93 68 61
0.488129 0.0119975 2.04097 83 60 54
0.518391 0.0116735 2.03668 86 69 59
0.548653 0.0113495 2.03238 84 66 42
0.584062 0.0114957 2.0438 75 57 55
0.609177 0.0107015 2.02378 62 49 40
0.633854 0.00991196 2.00382 24 17 9
0.557961 0.00113744 1.71433 28 24 23
0.570825 -0.000149443 1.67651 36 27 28
0.574534 -0.00202776 1.61839 39 30 31
0.527432 -0.00736765 1.44204 45 34 42
0.538928 -0.00834436 1.41367 45 33 35
0.546692 -0.00951097 1.37863 50 41 44
0.553551 -0.0106679 1.34372 44 39 36
0.560423 -0.0117592 1.31086 48 36 36
0.55369 -0.0135915 1.25218 61 41 43
0.540992 -0.0156553 1.18508 101 83 71
0.532455 -0.0173696 1.12973 148 131 115
0.535763 -0.0183572 1.09944 162 147 124
0.544603 -0.01901 1.0807 165 144 125
0.550813 -0.019766 1.05823 159 143 127
0.559221 -0.0203813 1.04058 171 155 130
0.567759 -0.0209652 1.02394 178 158 133
0.578796 -0.0214117 1.01209 174 159 130
0.589559 -0.0218553 1.00028 173 157 131
0.59761 -0.0224011 0.984738 177 149 135
0.610886 -0.0227074 0.97771 171 156 117
0.62084 -0.0231423 0.966013 172 157 128
0.634424 -0.0234191 0.95997 172 154 134
0.647234 -0.0237204 0.953009 169 147 134
0.666687 -0.0237645 0.955388 169 153 127
-0.859739 0.0406606 1.88387 21 17 16
-0.847368 0.0421557 1.91818 25 21 20
-0.81697 0.0412722 1.9015 15 11 8
-0.870417 0.0524004 2.14303 81 64 48
-0.836394 0.0513386 2.12274 95 72 64
-0.817273 0.052529 2.15094 103 78 58
-0.78808 0.0522164 2.1468 108 81 60
-0.758887 0.0519039 2.14265 113 89 77
-0.729694 0.0515913 2.1385 110 82 78
-0.700502 0.0512788 2.13436 124 96 84
-0.671309 0.0509662 2.13021 109 85 75
-0.642116 0.0506537 2.12607 108 87 66
-0.612923 0.0503411 2.12192 91 78 70
-0.559305 0.0444194 1.99579 33 27 27
-0.531689 0.0441237 1.99186 26 22 19
-0.504072 0.043828 1.98794 37 31 31
-0.476455 0.0435323 1.98402 41 30 34
-0.451044 0.0439113 1.99484 31 29 17
-0.423235 0.0436136 1.99089 38 27 23
-0.393605 0.0426453 1.97225 36 27 20
-0.367618 0.0430181 1.98299 33 25 22
-0.33981 0.0427204 1.97904 36 27 22
-0.313247 0.043087 1.98969 42 28 27
-0.286302 0.0434496 2.00029 43 33 24
-0.258109 0.0431477 1.99629 35 22 16
-0.230588 0.0435041 2.00681 31 20 24
-0.202203 0.0432002 2.00278 35 27 24
-0.174106 0.0435504 2.01321 33 26 20
-0.14553 0.0432445 2.00916 30 25 19
-0.116954 0.0429385 2.0051 21 17 14
-0.0883777 0.0426326 2.00104 33 23 21
-0.0598016 0.0423266 1.99698 22 16 16
-0.0305051 0.0427105 2.00828 31 20 24
-0.000797538 0.04309 2.01952 34 17 23
0.0315841 0.0448359 2.06129 62 41 36
0.0611882 0.0445189 2.05709 75 52 44
0.0907923 0.044202 2.05288 82 60 39
0.120396 0.043885 2.04868 92 67 62
0.148047 0.0428915 2.02929 59 40 34
0.177445 0.0425767 2.02512 106 81 50
0.202114 0.0409175 1.9907 41 34 24
0.231101 0.0406072 1.98658 40 29 27
0.257312 0.039629 1.9674 39 31 28
0.295039 0.0413177 2.00841 58 43 20
0.324438 0.0410029 2.00424 98 71 50
0.357229 0.0413494 2.01504 89 68 51
0.386833 0.0410325 2.01083 93 69 57
0.420495 0.0414161 2.02254 101 74 65
0.446041 0.0403986 2.00243 96 77 62
0.475645 0.0400816 1.99822 89 66 60
0.509965 0.0404582 2.00984 81 62 48
0.539788 0.0401389 2.0056 85 62 56
0.569612 0.0398196 2.00136 83 59 49
0.599435 0.0395003 1.99713 70 49 46
0.618423 0.0378554 1.96248 42 29 23
0.563003 0.0243586 1.65809 35 34 32
0.566763 0.0217608 1.60087 40 29 33
0.536313 0.0132514 1.40938 55 41 40
0.543521 0.0115931 1.37332 54 40 40
0.550687 0.0100283 1.33932 53 42 40
0.557895 0.00855612 1.30738 59 45 42
0.56097 0.00680262 1.26881 51 43 41
0.557678 0.00460576 1.21981 48 39 34
0.55107 0.0022584 1.16716 108 95 78
0.536354 -0.000606657 1.10226 162 144 120
0.542548 -0.00169603 1.07871 172 145 128
0.54868 -0.00273823 1.0562 166 148 128
0.554236 -0.00377427 1.03377 169 148 131
0.56263 -0.00456167 1.01712 173 155 135
0.5677 -0.00554598 0.995784 177 161 128
0.5758 -0.00628373 0.980206 173 153 126
0.586565 -0.00681751 0.969401 180 156 130
0.602697 -0.00699022 0.96711 179 142 123
0.615641 -0.00736131 0.960119 182 156 139
0.625845 -0.00788908 0.949394 176 155 128
0.641784 -0.00805973 0.94713 183 159 123
0.65501 -0.00838733 0.941129 168 147 116
-0.858891 0.0661454 1.88792 16 14 15
-0.841987 0.0673483 1.90928 17 17 15
-0.833883 0.07021 1.95873 17 11 13
-0.8541 0.0784894 2.1 72 52 45
-0.825715 0.0781856 2.09597 92 70 59
-0.801833 0.0787723 2.10704 84 58 33
-0.768947 0.0775778 2.08791 99 77 64
-0.744681 0.0781604 2.09892 107 85 71
-0.712178 0.07697 2.07985 116 89 78
-0.687529 0.0775485 2.0908 115 94 75
-0.658952 0.0772426 2.08675 114 92 79
-0.633966 0.0778776 2.09869 123 93 82
-0.598641 0.0757544 2.06372 99 77 66
-0.56729 0.0745763 2.04481 79 55 51
-0.539097 0.0742745 2.0408 29 23 23
-0.508322 0.0731026 2.02197 24 21 12
-0.480321 0.0728028 2.01799 28 24 13
-0.452321 0.072503 2.01402 27 23 12
-0.42432 0.0722033 2.01004 33 25 23
-0.398135 0.0727653 2.02078 26 26 24
-0.369943 0.0724635 2.01678 25 23 11
-0.341751 0.0721616 2.01277 28 20 17
-0.314798 0.0727155 2.0234 33 29 20
-0.287462 0.0732652 2.03398 36 29 21
-0.258886 0.0729593 2.02992 27 27 15
-0.231022 0.0735635 2.04146 44 36 25
-0.201734 0.0723474 2.0218 40 31 24
-0.173158 0.0720415 2.01775 38 30 28
-0.144677 0.0726391 2.02919 49 36 27
-0.116005 0.0714296 2.00963 53 46 30
-0.0871133 0.0720228 2.02102 52 37 32
-0.0583315 0.0717147 2.01693 61 42 44
-0.0288227 0.0723013 2.02823 61 44 34
0.000164643 0.0719909 2.02411 77 59 49
0.029152 0.0716806 2.01999 92 70 57
0.0581393 0.0713702 2.01588 93 74 57
0.0871266 0.0710599 2.01176 106 80 63
0.117869 0.0716333 2.02289 117 85 74
0.145101 0.0704392 2.00353 90 63 52
0.171922 0.0692495 1.98422 57 39 39
0.200704 0.0689413 1.98014 33 26 16
0.232063 0.0695081 1.99117 37 30 22
0.258268 0.068325 1.97196 38 26 26
0.290038 0.0688874 1.98294 88 64 38
0.315831 0.0677087 1.96378 120 84 48
0.344613 0.0674006 1.9597 73 49 39
0.373395 0.0670924 1.95561 110 84 49
0.405987 0.067646 1.96647 68 50 38
0.438991 0.0681953 1.97728 101 77 67
0.463962 0.0670254 1.95824 91 69 58
0.497377 0.0675702 1.96898 92 65 54
0.52657 0.0672576 1.96484 93 74 67
0.555763 0.0669451 1.96069 77 59 45
0.584956 0.0666325 1.95654 78 59 61
0.608899 0.0654736 1.93765 65 50 43
0.626975 0.063475 1.9041 32 23 24
0.572521 0.0508202 1.68461 30 25 22
0.567576 0.0461797 1.60475 22 23 18
0.571017 0.0430139 1.55056 34 25 18
0.529925 0.0341273 1.39631 58 43 50
0.544232 0.0329512 1.37672 52 43 38
0.551384 0.0309491 1.34265 50 45 42
0.558578 0.0290669 1.31064 47 43 32
0.56495 0.0271935 1.27875 47 40 34
0.561245 0.0242848 1.22867 50 43 33
0.5582 0.0216097 1.18263 52 38 37
0.540031 0.0174718 1.11085 116 101 82
0.540488 0.0154813 1.0767 154 138 112
0.540581 0.0135548 1.04363 165 148 120
0.549242 0.0125595 1.02691 162 142 118
0.557492 0.0115686 1.01025 170 156 130
0.562999 0.0103664 0.989842 156 97 91
0.570969 0.00943864 0.97425 127 41 28
0.578555 0.00851502 0.958713 137 41 29
0.594495 0.00834436 0.956449 141 30 36
0.602143 0.00748023 0.941936 135 94 88
0.614646 0.0070455 0.934996 160 143 117
0.630339 0.00687749 0.932767 167 147 120
0.643316 0.00649787 0.926793 172 148 122
-0.853366 0.090694 1.87889 14 13 11
-0.855038 0.0960285 1.95365 15 15 5
-0.833002 0.0966787 1.96294 17 13 10
-0.815167 0.0983338 1.98629 57 41 28
-0.81071 0.103233 2.055 110 82 68
-0.782902 0.102936 2.05105 109 82 71
-0.759397 0.103718 2.0622 107 87 63
-0.731396 0.103418 2.05823 110 83 64
-0.707316 0.104194 2.0693 110 91 59
-0.679124 0.103892 2.06529 122 95 88
-0.650931 0.10359 2.06129 111 88 74
-0.619394 0.102219 2.04232 120 90 79
-0.594546 0.102987 2.05328 119 91 69
-0.566354 0.102685 2.04928 114 87 68
-0.538162 0.102383 2.04527 64 56 43
-0.509969 0.102081 2.04127 56 47 32
-0.479392 0.10072 2.02243 70 54 38
-0.455778 0.102535 2.04806 72 53 46
-0.423391 0.10012 2.01448 81 61 52
-0.3972 0.100874 2.02525 92 74 60
-0.369007 0.100572 2.02125 79 63 40
-0.340815 0.10027 2.01724 98 72 57
-0.311389 0.0989213 1.99857 91 75 62
-0.285472 0.100711 2.02387 103 82 63
-0.257088 0.100407 2.01984 99 79 70
-0.229361 0.101144 2.03039 102 83 68
-0.200785 0.100838 2.02633 107 84 78
-0.171935 0.0994958 2.00775 108 82 65
-0.143633 0.100227 2.01822 111 85 72
-0.115276 0.0978554 1.98521 110 88 75
-0.0870831 0.0975535 1.9812 116 95 76
-0.0588907 0.0972517 1.9772 107 85 71
-0.0300133 0.0979763 1.98759 117 91 78
-0.000752174 0.0986968 1.99792 113 87 62
0.027824 0.0983909 1.99386 117 90 73
0.0551395 0.0970647 1.97549 121 89 78
0.0849763 0.097779 1.98575 113 85 64
0.113552 0.097473 1.98169 107 78 64
0.140292 0.096153 1.9634 115 86 72
0.170705 0.0968611 1.97357 98 72 59
0.197061 0.0955452 1.95534 104 81 65
0.227857 0.0962492 1.96545 89 71 61
0.256433 0.0959433 1.96139 75 62 45
0.285009 0.0956374 1.95733 64 42 44
0.313586 0.0953314 1.95328 56 40 24
0.338982 0.0940257 1.93518 53 43 31
0.367367 0.0937218 1.93115 49 36 20
0.395751 0.0934179 1.92711 68 57 39
0.424135 0.0931141 1.92308 91 66 59
0.456466 0.0938017 1.93298 97 71 58
0.489477 0.0945559 1.94382 96 68 54
0.518259 0.0942477 1.93973 98 74 64
0.542195 0.0928838 1.9208 87 64 56
0.570771 0.0925779 1.91675 75 59 43
0.599347 0.0922719 1.91269 81 61 52
0.622825 0.0909868 1.89486 61 49 37
0.640629 0.0887286 1.86335 31 27 16
0.577003 0.072131 1.63018 32 30 18
0.571806 0.0667223 1.55433 40 29 35
0.575055 0.0630693 1.50315 37 29 26
0.53802 0.0532019 1.36454 58 42 42
0.548956 0.0513864 1.33918 51 42 35
0.55558 0.0490264 1.30615 46 35 29
0.565619 0.0472944 1.28195 56 37 39
0.565304 0.0441965 1.23852 50 41 32
0.561834 0.0408369 1.1914 50 43 35
0.558647 0.0376959 1.14735 60 47 38
0.543709 0.0332038 1.08426 118 106 82
0.541145 0.0304991 1.04633 158 144 117
0.544239 0.0286199 1.02001 155 137 123
0.547218 0.0268159 0.994748 168 152 126
0.555373 0.0256948 0.979099 103 26 20
0.563144 0.0245778 0.963504 131 34 25
0.576641 0.0241379 0.957447 139 30 35
0.583781 0.0230277 0.941942 137 39 30
0.591177 0.0219886 0.927436 141 39 25
0.604084 0.0215551 0.921462 159 123 107
0.616881 0.0211227 0.915504 163 143 119
0.632286 0.0209577 0.913316 169 146 112
-0.848242 0.115006 1.8709 18 15 22
-0.844775 0.120045 1.93057 9 9 7
-0.827779 0.122051 1.95409 11 10 5
-0.823325 0.127516 2.0188 92 74 50
-0.796078 0.127224 2.01493 115 81 79
-0.773321 0.128206 2.02622 123 95 84
-0.745882 0.127912 2.02233 112 92 85
-0.722256 0.128797 2.03246 117 84 75
-0.694639 0.128501 2.02853 125 86 81
-0.667022 0.128206 2.02461 120 92 89
-0.639406 0.12791 2.02069 115 94 75
-0.611789 0.127614 2.01677 119 92 81
-0.584172 0.127319 2.01284 122 92 82
-0.556555 0.127023 2.00892 121 95 72
-0.531701 0.127982 2.01991 114 87 70
-0.501322 0.126432 2.00108 120 91 85
-0.473705 0.126136 1.99715 126 98 84
-0.446088 0.12584 1.99323 126 91 85
-0.418471 0.125545 1.98931 115 97 77
-0.392658 0.126493 2.00016 121 97 85
-0.363238 0.124953 1.98146 121 92 86
-0.33704 0.125898 1.99226 125 98 81
-0.308004 0.124362 1.97362 116 89 80
-0.281423 0.125302 1.98436 124 98 75
-0.253614 0.125005 1.98041 121 91 93
-0.226458 0.125939 1.99108 126 98 74
-0.197997 0.124409 1.97251 114 84 73
-0.170457 0.125339 1.98313 115 88 81
-0.14238 0.123814 1.96462 114 89 82
-0.114571 0.123516 1.96067 114 87 70
-0.0867625 0.123218 1.95672 113 85 82
-0.0589539 0.122921 1.95277 118 92 77
-0.0304539 0.123841 1.96324 113 91 77
-0.00245335 0.123541 1.95926 114 91 73
0.0255472 0.123241 1.95529 123 97 80
0.0535477 0.122941 1.95131 113 86 75
0.0815482 0.122641 1.94733 108 81 72
0.109549 0.122342 1.94335 116 84 71
0.137549 0.122042 1.93938 111 79 66
0.16555 0.121742 1.9354 114 81 74
0.19355 0.121442 1.93142 114 78 66
0.223969 0.122342 1.94162 108 82 65
0.252162 0.12204 1.93762 98 76 63
0.280354 0.121738 1.93362 100 73 62
0.308546 0.121436 1.92961 108 80 69
0.336739 0.121134 1.92561 96 72 62
0.364931 0.120833 1.9216 85 68 60
0.389554 0.119344 1.90358 109 75 73
0.417555 0.119044 1.89961 110 79 74
0.445555 0.118744 1.89563 105 75 64
0.477701 0.119625 1.90559 89 64 59
0.505893 0.119323 1.90158 91 68 54
0.529557 0.117845 1.8837 88 63 58
0.557557 0.117545 1.87972 90 74 59
0.585558 0.117245 1.87574 89 63 48
0.613558 0.116946 1.87177 74 57 49
0.630966 0.114309 1.84025 42 35 25
0.572596 0.0904307 1.5581 43 39 38
0.575822 0.0861081 1.50681 31 28 23
0.542499 0.0708879 1.32691 55 43 43
0.549811 0.0682718 1.29579 55 43 43
0.559648 0.0662412 1.27157 47 43 40
0.562539 0.0631474 1.23485 52 45 35
0.568985 0.0608031 1.20697 52 41 49
0.562349 0.0564986 1.15604 50 46 47
0.56175 0.0533546 1.11879 57 47 37
0.541709 0.0474434 1.04902 133 120 101
0.54201 0.0448149 1.01786 152 132 105
0.544909 0.0426836 0.992554 138 118 107
0.550653 0.0410469 0.973067 91 19 22
0.558295 0.0397399 0.95746 133 63 61
0.566164 0.038518 0.942857 152 77 81
0.573677 0.0372999 0.928305 103 35 50
0.584027 0.036489 0.918537 42 22 21
0.593506 0.0355999 0.907855 65 58 52
0.606068 0.0351154 0.901921 135 119 103
0.618521 0.0346321 0.896003 174 154 129
-0.865286 0.145023 1.92526 18 9 14
-0.853287 0.148638 1.96202 61 46 49
-0.835937 0.150982 1.98554 74 61 55
-0.809211 0.150695 1.98175 114 87 70
-0.782485 0.150409 1.97795 108 84 80
-0.759601 0.151378 1.98717 119 101 81
-0.732711 0.151091 1.98335 123 105 91
-0.709627 0.152159 1.99359 120 99 80
-0.682559 0.151869 1.98975 116 88 85
-0.65549 0.151579 1.9859 122 102 91
-0.628421 0.151289 1.98206 130 101 93
-0.598259 0.149651 1.96426 119 92 75
-0.574284 0.15071 1.97437 129 100 92
-0.549953 0.151765 1.98442 121 93 79
-0.520147 0.15013 1.96668 122 91 88
-0.49546 0.151181 1.97668 121 90 87
-0.468213 0.150889 1.97281 122 99 83
-0.443147 0.152038 1.98381 123 95 71
-0.41372 0.150306 1.96507 123 95 94
-0.384805 0.148681 1.94745 119 93 78
-0.359226 0.149723 1.95733 125 96 82
-0.331979 0.149431 1.95346 126 98 87
-0.303599 0.147812 1.93592 121 93 79
-0.278515 0.150275 1.96042 121 95 80
-0.250239 0.148556 1.94185 122 96 73
-0.223638 0.149687 1.95263 126 90 78
-0.195746 0.147972 1.93411 119 88 70
-0.168499 0.147681 1.93024 119 90 76
-0.141252 0.147389 1.92637 129 100 86
-0.114006 0.147097 1.9225 112 79 74
-0.086759 0.146805 1.91863 116 88 74
-0.0595122 0.146514 1.91476 127 93 83
-0.0315678 0.147631 1.92535 119 92 75
-0.00412919 0.147337 1.92145 120 90 79
0.0233094 0.147044 1.91755 120 90 79
0.050748 0.14675 1.91366 126 99 88
0.0781866 0.146456 1.90976 115 89 76
0.103968 0.144763 1.89154 119 88 68
0.133064 0.145869 1.90197 116 87 81
0.160502 0.145575 1.89807 108 79 65
0.187941 0.145281 1.89417 104 89 70
0.217631 0.146278 1.90347 111 72 65
0.245248 0.145983 1.89954 102 77 70
0.272865 0.145687 1.89562 98 77 60
0.300481 0.145391 1.8917 104 77 70
0.328098 0.145096 1.88778 109 81 69
0.355715 0.1448 1.88385 103 75 71
0.383332 0.144504 1.87993 100 78 64
0.40745 0.142931 1.86299 105 81 71
0.434888 0.142637 1.8591 101 73 62
0.466182 0.143617 1.86816 94 71 53
0.493799 0.143322 1.86424 85 63 52
0.521416 0.143026 1.86032 94 69 64
0.549032 0.14273 1.8564 85 66 51
0.572081 0.141168 1.83961 89 67 54
0.604266 0.142139 1.84855 90 68 55
0.621656 0.139221 1.81801 66 52 51
0.638698 0.136408 1.78857 31 28 23
0.569323 0.113171 1.55205 30 30 22
0.572811 0.108277 1.50166 37 29 27
0.579752 0.104459 1.46221 46 34 36
0.540054 0.0908197 1.32335 55 46 41
0.546796 0.087712 1.29121 57 46 50
0.556988 0.0854781 1.26793 53 41 43
0.560255 0.082003 1.23212 54 44 52
0.56962 0.0798791 1.21 52 38 37
0.569151 0.0760393 1.17056 54 44 34
0.565523 0.0718285 1.12742 52 39 48
0.562373 0.0679162 1.08733 79 66 57
0.550914 0.0627775 1.0349 139 119 112
0.545448 0.05889 0.995131 83 62 61
0.548263 0.0565327 0.970822 98 26 27
0.553437 0.0546561 0.951376 135 44 53
0.561177 0.0532578 0.936763 172 119 129
0.569186 0.0519579 0.923151 176 126 125
0.578784 0.0509445 0.912431 103 61 71
0.586176 0.0496512 0.898907 36 23 33
0.601239 0.04949 0.896768 71 51 63
0.610859 0.0485775 0.887085 170 149 122
-0.883454 0.176653 1.98311 67 53 40
-0.852411 0.174943 1.9662 95 69 54
-0.826028 0.17466 1.96245 106 80 63
-0.799644 0.174378 1.95871 117 84 75
-0.773261 0.174095 1.95496 120 95 64
-0.754872 0.17677 1.97839 123 91 78
-0.720494 0.17353 1.94746 123 93 95
-0.697619 0.174663 1.95672 119 94 87
-0.667728 0.172965 1.93997 127 95 82
-0.644524 0.174095 1.94917 123 89 87
-0.617976 0.173811 1.9454 118 91 82
-0.594516 0.175053 1.95561 122 93 77
-0.564881 0.173242 1.93786 126 98 84
-0.538333 0.172958 1.93409 128 100 89
-0.516695 0.175598 1.95706 123 97 80
-0.487613 0.173908 1.94043 125 96 78
-0.460887 0.173622 1.93663 125 98 87
-0.434161 0.173336 1.93284 126 93 84
-0.407435 0.17305 1.92904 125 92 77
-0.380709 0.172764 1.92525 122 98 72
-0.353983 0.172477 1.92145 117 86 66
-0.327257 0.172191 1.91765 127 96 78
-0.300531 0.171905 1.91386 117 91 74
-0.274682 0.173007 1.92269 116 89 82
-0.247079 0.171333 1.90627 120 87 78
-0.220901 0.172431 1.91505 113 92 73
-0.194011 0.172143 1.91123 116 94 81
-0.167121 0.171855 1.90741 124 93 72
-0.14023 0.171567 1.90359 125 100 78
-0.11334 0.171279 1.89977 126 96 86
-0.0864495 0.170991 1.89595 125 97 86
-0.0599981 0.16933 1.87969 127 91 75
-0.0320149 0.171902 1.90176 127 95 84
-0.00577836 0.170128 1.88449 120 88 75
0.021112 0.16984 1.88067 118 89 75
0.0480024 0.169552 1.87686 120 93 74
0.0736314 0.167899 1.86071 125 94 76
0.100357 0.167613 1.85692 116 87 69
0.128674 0.168688 1.8654 113 80 73
0.153809 0.167041 1.84933 119 86 79
0.182454 0.168112 1.85776 117 85 74
0.211602 0.169293 1.86716 121 92 84
0.238671 0.169004 1.86332 109 81 70
0.268353 0.170179 1.87264 104 77 68
0.292808 0.168424 1.85563 102 76 59
0.322846 0.169595 1.8649 106 87 73
0.346945 0.167844 1.84794 111 82 74
0.374013 0.167555 1.84409 107 78 64
0.401082 0.167265 1.84025 101 81 74
0.42815 0.166975 1.8364 99 77 66
0.455219 0.166685 1.83256 105 83 72
0.482287 0.166395 1.82871 93 66 57
0.509356 0.166105 1.82487 96 74 63
0.536425 0.165816 1.82103 97 70 59
0.563493 0.165526 1.81718 94 72 61
0.590562 0.165236 1.81334 87 60 65
0.6127 0.163506 1.79665 68 51 43
0.634875 0.16189 1.781 50 32 28
0.573573 0.131193 1.5053 33 27 27
0.580498 0.126869 1.46577 37 33 32
0.583722 0.121896 1.42052 42 38 27
0.544235 0.107044 1.28757 56 45 41
0.554322 0.104524 1.26426 55 47 36
0.560899 0.101352 1.2352 57 42 49
0.566737 0.0981889 1.20624 55 40 43
0.572867 0.095252 1.17933 52 43 34
0.572482 0.0911215 1.14188 58 47 41
0.565673 0.0859113 1.09492 42 39 32
0.568751 0.0828922 1.0674 94 77 69
0.545988 0.0750964 0.997709 136 113 99
0.548792 0.0724248 0.97335 100 25 22
0.551564 0.0698684 0.950037 109 20 12
0.556795 0.06786 0.931584 133 48 43
0.564063 0.0662891 0.917008 168 115 111
0.569055 0.0643981 0.899631 163 90 109
0.58145 0.063806 0.893703 86 57 51
0.591066 0.0627842 0.884003 79 71 60
0.603186 0.062195 0.878115 175 154 123
-0.868222 0.198213 1.94665 112 86 73
-0.842182 0.197934 1.94296 99 75 71
-0.811816 0.196067 1.92611 111 88 70
-0.78594 0.19579 1.92244 124 96 75
-0.760064 0.195513 1.91876 116 91 69
-0.738019 0.196819 1.92816 113 94 79
-0.711979 0.19654 1.92446 129 106 74
-0.685938 0.196261 1.92076 129 104 97
-0.659898 0.195982 1.91706 116 89 70
-0.633857 0.195704 1.91337 109 82 61
-0.607816 0.195425 1.90967 123 96 75
-0.58462 0.196719 1.9189 128 97 76
-0.558415 0.196438 1.91518 131 98 83
-0.529694 0.194588 1.89857 125 96 78
-0.508553 0.197575 1.92167 125 100 78
-0.4798 0.195596 1.90401 133 98 79
-0.453595 0.195316 1.90029 132 103 87
-0.42739 0.195035 1.89657 126 100 85
-0.401185 0.194755 1.89285 128 101 82
-0.37498 0.194474 1.88912 132 102 94
-0.348775 0.194194 1.8854 125 91 79
-0.32257 0.193913 1.88168 128 95 86
-0.296364 0.193633 1.87796 116 89 60
-0.271103 0.195033 1.88794 125 87 78
-0.24472 0.19475 1.88419 128 96 81
-0.218337 0.194468 1.88045 117 86 65
-0.191953 0.194185 1.8767 113 91 67
-0.16557 0.193903 1.87295 127 95 84
-0.139187 0.193621 1.8692 129 95 93
-0.112804 0.193338 1.86546 123 91 70
-0.0864203 0.193056 1.86171 121 91 81
-0.0600371 0.192773 1.85796 121 96 65
-0.0336538 0.192491 1.85422 127 96 75
-0.00727055 0.192208 1.85047 129 98 80
0.0191127 0.191926 1.84672 121 93 79
0.045496 0.191643 1.84297 133 99 90
0.0731461 0.192889 1.85157 120 88 77
0.0996938 0.192605 1.8478 115 92 84
0.126242 0.192321 1.84403 112 84 72
0.151029 0.190513 1.82798 114 83 62
0.179337 0.191753 1.83649 109 83 70
0.208148 0.193115 1.84597 108 80 66
0.234874 0.192829 1.84217 105 74 56
0.2616 0.192543 1.83838 105 77 66
0.288326 0.192256 1.83458 100 72 58
0.312076 0.190331 1.81764 86 71 42
0.341778 0.191684 1.82699 107 83 71
0.365171 0.189763 1.8101 101 70 68
0.395229 0.191112 1.8194 111 82 76
0.421955 0.190826 1.8156 105 84 65
0.448681 0.19054 1.81181 108 81 64
0.471362 0.188626 1.79501 95 72 56
0.49791 0.188342 1.79124 100 73 62
0.528859 0.189681 1.80042 103 79 67
0.551005 0.187773 1.7837 89 69 58
0.577553 0.187489 1.77993 94 66 52
0.599545 0.185711 1.76428 80 58 47
0.625928 0.185429 1.76053 71 53 51
0.647019 0.183532 1.74396 36 27 20
0.570549 0.152992 1.50009 25 19 19
0.581244 0.149279 1.46933 36 32 33
0.580414 0.142605 1.41516 40 31 32
0.541668 0.126184 1.2839 49 40 23
0.551649 0.123378 1.26056 51 42 37
0.554693 0.118976 1.22463 49 44 40
0.564351 0.11643 1.20342 53 48 42
0.570387 0.113153 1.17647 56 42 41
0.573086 0.109268 1.14476 54 39 42
0.572786 0.104902 1.10931 50 39 37
0.572112 0.100668 1.07495 54 40 37
0.56596 0.0954644 1.03302 59 30 35
0.549321 0.0883169 0.975877 98 24 23
0.552083 0.0854599 0.952516 116 21 25
0.551792 0.0821215 0.925413 132 32 32
0.559557 0.0804961 0.911782 154 57 76
0.566993 0.0788743 0.898198 169 96 115
0.5741 0.077256 0.88466 163 124 119
0.581546 0.0757625 0.872119 175 150 130
0.590734 0.074636 0.862461 170 149 120
-0.86271 0.22242 1.93757 111 88 72
-0.832349 0.220389 1.9207 110 95 76
-0.802678 0.218507 1.90498 125 96 90
-0.772962 0.216482 1.8882 117 89 78
-0.747566 0.21621 1.88459 107 85 72
-0.725995 0.217686 1.89409 120 97 83
-0.700434 0.217412 1.89045 125 95 87
-0.674873 0.217138 1.88682 127 98 84
-0.649313 0.216865 1.88319 126 92 82
-0.623752 0.216591 1.87956 126 94 71
-0.598191 0.216317 1.87593 113 93 82
-0.575233 0.217636 1.88418 117 94 80
-0.549521 0.21736 1.88053 130 95 93
-0.521508 0.215496 1.86504 133 109 81
-0.500443 0.218541 1.88611 126 98 86
-0.474567 0.218264 1.88244 120 98 84
-0.446674 0.216259 1.86592 127 101 78
-0.420962 0.215984 1.86227 124 96 82
-0.395251 0.215709 1.85862 126 93 74
-0.369539 0.215434 1.85496 116 97 67
-0.343827 0.215158 1.85131 122 95 66
-0.318116 0.214883 1.84766 120 91 87
-0.292404 0.214608 1.84401 122 91 88
-0.265899 0.21276 1.82873 119 91 79
-0.241682 0.215771 1.84936 123 97 72
-0.215806 0.215494 1.84568 119 86 79
-0.189929 0.215217 1.84201 118 85 76
-0.164053 0.21494 1.83833 121 88 79
-0.138177 0.214663 1.83466 113 86 65
-0.112301 0.214386 1.83098 124 100 74
-0.0864249 0.214109 1.82731 126 94 83
-0.0605487 0.213832 1.82363 134 102 81
-0.0340581 0.215254 1.83242 132 101 83
-0.00801751 0.214975 1.82872 125 95 87
0.0170798 0.213001 1.81261 116 87 83
0.0440638 0.214418 1.82133 122 98 70
0.0701044 0.214139 1.81763 121 94 83
0.096145 0.21386 1.81393 117 84 77
0.120584 0.211892 1.7979 108 79 71
0.146461 0.211615 1.79423 106 81 74
0.174267 0.213024 1.80283 92 74 54
0.202402 0.214429 1.81139 110 83 72
0.226348 0.212466 1.79544 102 76 59
0.252389 0.212187 1.79174 97 73 61
0.281017 0.213587 1.80023 105 78 61
0.30447 0.21163 1.78434 103 75 61
0.330511 0.211351 1.78064 96 73 57
0.359633 0.212746 1.78906 105 85 74
0.382592 0.210793 1.77324 109 85 73
0.412043 0.212184 1.78162 97 76 59
0.438248 0.211904 1.77789 106 77 69
0.464453 0.211623 1.77417 105 82 74
0.490658 0.211343 1.77045 99 74 67
0.516863 0.211062 1.76673 101 72 64
0.543068 0.210782 1.76301 103 78 56
0.569273 0.210501 1.75928 95 70 65
0.590917 0.208563 1.74365 75 57 47
0.612231 0.206629 1.72807 70 52 42
0.633217 0.204698 1.71254 54 46 27
0.585905 0.172927 1.48176 35 30 26
0.585175 0.165541 1.42746 44 35 36
0.591342 0.160641 1.39101 43 31 33
0.545637 0.141081 1.24998 65 56 47
0.552392 0.137312 1.22182 65 52 43
0.561959 0.134508 1.20058 52 47 43
0.567902 0.13089 1.17358 57 48 43
0.57369 0.127415 1.14765 59 48 56
0.576098 0.123266 1.11697 64 48 48
0.578827 0.119397 1.08833 49 42 26
0.572236 0.113496 1.04532 53 45 43
0.571522 0.109238 1.01404 65 37 23
0.552602 0.101051 0.954995 121 31 31
0.552299 0.0973577 0.927836 135 48 39
0.560059 0.0955684 0.914179 129 32 43
0.564927 0.0932412 0.896747 169 96 107
0.570012 0.0910539 0.880332 155 121 111
0.576689 0.0892762 0.866828 146 126 99
0.580992 0.0870973 0.850523 166 146 122
-0.844052 0.240859 1.89091 110 93 83
-0.818807 0.240589 1.88733 127 93 84
-0.793561 0.240318 1.88374 111 95 82
-0.764511 0.238293 1.86808 117 90 79
-0.739416 0.238024 1.86452 120 95 65
-0.714321 0.237755 1.86095 123 96 77
-0.689227 0.237487 1.85739 113 94 64
-0.664132 0.237218 1.85382 124 100 74
-0.639037 0.236949 1.85026 119 96 80
-0.616841 0.238426 1.85864 115 93 79
-0.588847 0.236412 1.84313 122 99 81
-0.563752 0.236143 1.83957 124 90 78
-0.541104 0.237615 1.84788 129 108 77
-0.515858 0.237345 1.8443 133 101 88
-0.492758 0.238812 1.85255 131 101 93
-0.465367 0.236805 1.83712 124 90 81
-0.443977 0.24016 1.8582 125 93 78
-0.416569 0.237996 1.84173 129 88 68
-0.392855 0.239613 1.85094 120 102 82
-0.365776 0.237453 1.83451 130 97 88
-0.340379 0.237181 1.8309 124 90 80
-0.314983 0.236909 1.8273 126 96 85
-0.288647 0.234912 1.81202 124 92 81
-0.26419 0.236365 1.82008 115 93 70
-0.240127 0.239692 1.84078 124 100 76
-0.213928 0.237697 1.82553 124 92 81
-0.188 0.235549 1.80926 125 96 78
-0.162604 0.235277 1.80565 122 95 74
-0.137173 0.233291 1.79051 114 85 79
-0.111811 0.234734 1.79844 123 91 70
-0.0864146 0.234462 1.79483 121 96 74
-0.0610181 0.23419 1.79123 133 105 84
-0.0356216 0.233918 1.78762 126 99 90
-0.00944083 0.235508 1.79648 121 98 67
0.0151713 0.233374 1.7804 122 98 72
0.041681 0.234961 1.78922 120 84 68
0.067242 0.234687 1.78559 116 89 72
0.0913607 0.232558 1.76958 106 87 72
0.115284 0.230588 1.75465 107 81 44
0.14053 0.230318 1.75107 98 72 57
0.165776 0.230047 1.74748 86 64 53
0.196972 0.235012 1.7787 112 85 64
0.220608 0.233045 1.76381 109 80 76
0.246168 0.232771 1.76018 116 89 68
0.274107 0.234187 1.76774 113 84 70
0.29729 0.232224 1.75291 111 86 66
0.322851 0.23195 1.74928 113 85 71
0.348412 0.231677 1.74565 110 83 66
0.376954 0.233086 1.75313 106 77 63
0.402665 0.23281 1.74948 105 79 64
0.428377 0.232535 1.74583 108 82 65
0.454089 0.23226 1.74218 97 79 55
0.4798 0.231984 1.73853 106 84 61
0.505512 0.231709 1.73487 106 80 63
0.531224 0.231434 1.73122 101 83 59
0.556935 0.231159 1.72757 93 76 50
0.578461 0.229214 1.71298 93 65 54
0.604021 0.22894 1.70935 82 64 50
0.624686 0.226848 1.69383 69 53 37
0.650083 0.226577 1.69022 43 33 21
0.582736 0.1941 1.47646 28 24 15
0.585901 0.187364 1.43093 40 34 38
0.58835 0.180791 1.38654 40 32 29
0.543425 0.159608 1.24719 49 47 26
0.549596 0.155334 1.218 63 52 50
0.556034 0.151368 1.19087 59 46 37
0.565411 0.148462 1.17067 63 50 44
0.571106 0.144661 1.1447 55 44 48
0.576689 0.141016 1.11979 53 44 35
0.584993 0.138278 1.10078 59 42 48
0.57852 0.131801 1.05767 61 56 27
0.57793 0.127132 1.0263 55 39 40
0.571718 0.121275 0.987336 60 30 32
0.555874 0.11334 0.935066 115 27 25
0.560561 0.110641 0.916576 117 47 39
0.562858 0.107499 0.89528 147 132 103
0.565262 0.104512 0.875017 155 140 111
0.574497 0.103166 0.865317 162 137 115
0.581467 0.101377 0.852794 142 127 86
-0.843214 0.266029 1.89491 125 102 68
-0.809768 0.261942 1.86705 125 101 77
-0.776924 0.25786 1.83927 119 97 73
-0.752282 0.257597 1.83577 124 100 66
-0.731287 0.259237 1.84434 127 100 81
-0.706494 0.258971 1.84082 120 95 73
