ply
format ascii 1.0
element vertex 1292
property float x
property float y
property float z
property uchar red
property uchar green
property uchar blue
end_header
-0.388394 -0.175431 1.89049 37 30 20
-0.361414 -0.175327 1.88606 34 28 30
-0.33318 -0.174492 1.86818 33 21 21
-0.307452 -0.175119 1.87721 29 21 18
-0.280472 -0.175015 1.87278 30 25 22
-0.254212 -0.17564 1.88173 31 24 18
-0.227053 -0.175535 1.87727 25 19 23
-0.200288 -0.176214 1.88715 33 25 22
-0.172939 -0.176109 1.88267 25 22 17
-0.1456 -0.17673 1.89144 37 29 27
-0.118072 -0.176624 1.88692 30 21 22
-0.0901737 -0.177298 1.89662 38 28 29
-0.0630182 -0.176411 1.87788 30 22 19
-0.035491 -0.176305 1.87337 35 27 25
-0.00701856 -0.176977 1.88297 34 28 28
0.0218364 -0.177648 1.89251 24 16 13
0.0484182 -0.176763 1.87387 31 23 20
0.0746174 -0.17588 1.8553 45 31 28
0.144904 -0.195166 2.20065 56 39 32
0.174632 -0.19399 2.1764 63 45 45
0.209521 -0.194917 2.19004 60 45 40
0.24183 -0.194793 2.18474 67 49 37
0.270779 -0.193619 2.16062 69 53 40
0.306447 -0.194543 2.17414 77 57 56
0.334877 -0.193372 2.1501 76 58 46
0.366926 -0.193248 2.14484 67 51 35
0.398974 -0.193124 2.13958 70 53 35
0.431023 -0.193001 2.13432 77 59 47
0.463072 -0.192877 2.12906 85 65 54
0.490217 -0.191767 2.10625 83 63 62
0.52202 -0.191644 2.10103 94 70 60
0.553823 -0.191521 2.09581 85 64 61
0.591268 -0.192382 2.10802 80 58 44
0.623317 -0.192259 2.10276 72 53 57
0.655366 -0.192135 2.09751 57 45 45
0.674656 -0.190049 2.05763 18 13 9
0.602786 -0.174624 1.7829 28 25 20
0.600347 -0.170219 1.70274 25 21 20
0.607217 -0.167399 1.65063 34 30 31
0.553816 -0.156764 1.46158 43 34 35
0.564864 -0.155101 1.43019 52 40 44
0.579482 -0.153983 1.40842 49 39 37
0.586381 -0.152001 1.3716 43 38 32
0.584904 -0.149157 1.31984 51 44 38
0.590627 -0.147291 1.28525 52 43 48
0.544381 -0.139814 1.15314 87 81 67
0.547385 -0.138014 1.12002 81 71 62
0.55988 -0.137295 1.10574 110 98 84
0.565664 -0.135932 1.08031 167 149 127
0.574066 -0.134893 1.06058 167 151 128
0.582535 -0.133911 1.04186 169 154 131
0.593978 -0.133252 1.02876 170 150 113
0.605121 -0.132594 1.01572 173 155 135
0.612961 -0.13167 0.998116 172 156 133
0.627118 -0.131336 0.990695 173 156 130
0.64051 -0.130949 0.982379 174 157 129
0.65438 -0.130616 0.975005 175 153 130
0.671388 -0.130551 0.972213 177 140 121
0.685053 -0.130218 0.964873 177 120 129
0.705404 -0.130419 0.966631 171 122 126
0.722412 -0.130354 0.96384 161 100 108
-0.843782 -0.160808 2.22467 110 82 78
-0.818516 -0.161429 2.2379 114 86 72
-0.787902 -0.16131 2.23288 116 92 82
-0.757287 -0.161192 2.22786 112 89 75
-0.726673 -0.161074 2.22283 111 94 66
-0.691871 -0.160222 2.19974 116 86 78
-0.665444 -0.160838 2.21278 115 87 75
-0.631106 -0.159987 2.18977 114 86 65
-0.604215 -0.160602 2.20274 118 95 81
-0.5736 -0.160484 2.19771 56 49 33
-0.493316 -0.148384 1.89935 29 29 21
-0.46865 -0.148838 1.90859 30 22 19
-0.43971 -0.148177 1.89055 34 27 21
-0.414689 -0.14863 1.89974 31 26 20
-0.389312 -0.149081 1.90886 33 28 24
-0.362154 -0.148977 1.9044 39 29 28
-0.334995 -0.148872 1.89995 33 24 25
-0.307837 -0.148767 1.89549 32 22 20
-0.281641 -0.149258 1.9055 28 23 27
-0.255008 -0.149704 1.91442 28 22 24
-0.227481 -0.149598 1.9099 29 17 17
-0.200342 -0.150085 1.91976 26 21 15
-0.172426 -0.149385 1.90087 35 26 19
-0.144899 -0.149279 1.89635 37 28 23
-0.117187 -0.149764 1.90611 38 29 24
-0.0894685 -0.149657 1.90156 40 29 25
-0.0617501 -0.14955 1.89701 28 23 19
-0.0332728 -0.150032 1.90665 29 20 13
-0.00441293 -0.150512 1.91622 34 24 22
0.0225465 -0.149816 1.89749 27 19 17
0.0504561 -0.149709 1.89291 32 24 22
0.0783657 -0.149601 1.88833 38 29 24
0.138988 -0.16065 2.1513 57 40 30
0.168094 -0.159777 2.12813 60 43 33
0.199405 -0.159656 2.12299 66 48 46
0.230716 -0.159535 2.11785 76 54 41
0.262027 -0.159414 2.11271 75 51 49
0.300208 -0.160788 2.14324 80 52 49
0.32833 -0.159919 2.12023 69 50 43
0.359888 -0.159797 2.11505 74 58 45
0.391445 -0.159676 2.10987 79 59 50
0.423002 -0.159554 2.10469 87 73 62
0.454559 -0.159432 2.09951 86 59 48
0.481206 -0.158569 2.07674 89 69 60
0.512517 -0.158448 2.0716 95 76 61
0.543828 -0.158327 2.06647 94 67 48
0.580788 -0.158945 2.0788 82 64 52
0.606451 -0.158085 2.05619 75 53 42
0.643902 -0.158701 2.06844 54 41 32
0.669073 -0.157844 2.04591 32 22 21
0.601025 -0.143654 1.7075 29 29 21
0.603128 -0.141026 1.64378 20 20 12
0.610088 -0.139056 1.59562 32 27 23
0.561639 -0.13189 1.42571 49 42 36
0.576128 -0.131031 1.40391 53 42 40
0.586945 -0.129891 1.37556 52 41 37
0.585451 -0.127741 1.32367 42 34 23
0.591162 -0.126325 1.289 47 36 32
0.541921 -0.120472 1.15091 96 82 73
0.547861 -0.11935 1.12336 160 143 117
0.55724 -0.118553 1.10342 159 144 123
0.562933 -0.117517 1.07796 162 145 117
0.571247 -0.116725 1.05819 159 143 118
0.580188 -0.116014 1.04037 168 152 129
0.590986 -0.115465 1.02633 169 151 137
0.596172 -0.114558 1.00402 166 151 120
0.610396 -0.114292 0.996573 170 157 122
0.617725 -0.113587 0.979016 181 166 133
0.625245 -0.112924 0.962449 178 157 130
0.638772 -0.112661 0.955118 173 149 125
0.648885 -0.112199 0.943237 171 130 124
0.66876 -0.112334 0.945086 175 128 120
0.681945 -0.112072 0.937812 165 115 106
0.705438 -0.112404 0.944178 176 114 119
-0.775334 -0.121687 1.91261 10 11 3
-0.827923 -0.129077 2.17844 105 89 74
-0.798197 -0.128963 2.17356 105 88 72
-0.773062 -0.129324 2.18583 115 92 76
-0.743116 -0.129208 2.18091 117 90 79
-0.713171 -0.129093 2.176 116 88 74
-0.683226 -0.128977 2.17108 122 95 86
-0.656998 -0.129334 2.18317 117 95 84
-0.619837 -0.128274 2.14429 111 86 66
-0.593391 -0.12863 2.15634 105 81 71
-0.560384 -0.128045 2.13453 73 54 50
-0.494944 -0.122037 1.91783 38 29 32
-0.467964 -0.121933 1.91341 30 21 24
-0.442938 -0.122208 1.92262 30 25 21
-0.417693 -0.122512 1.93282 34 29 26
-0.388621 -0.121999 1.91371 31 25 27
-0.361463 -0.121894 1.90925 34 31 16
-0.335644 -0.122195 1.91936 36 26 24
-0.308295 -0.12209 1.91487 35 26 21
-0.281834 -0.12236 1.92385 33 24 19
-0.255074 -0.122657 1.9338 24 19 16
-0.227355 -0.12255 1.92925 37 27 25
-0.199637 -0.122443 1.9247 28 19 22
-0.171918 -0.122337 1.92016 30 25 22
-0.1442 -0.12223 1.91561 21 16 10
-0.116292 -0.122523 1.92537 28 20 18
-0.088382 -0.122415 1.92079 36 30 16
-0.0604724 -0.122307 1.91621 38 31 25
-0.0325627 -0.1222 1.91163 31 24 18
-0.00369802 -0.122489 1.92124 34 24 23
0.0255492 -0.122777 1.93079 25 22 17
0.0525037 -0.122272 1.91202 26 23 16
0.0806046 -0.122164 1.90741 44 34 25
0.131313 -0.127237 2.08762 58 39 33
0.161927 -0.127119 2.0826 69 49 48
0.192542 -0.127001 2.07757 72 53 38
0.223156 -0.126883 2.07255 71 51 50
0.253771 -0.126765 2.06753 69 50 35
0.287635 -0.127121 2.07939 75 54 49
0.318482 -0.127002 2.07433 79 63 50
0.349329 -0.126883 2.06926 83 66 50
0.380176 -0.126764 2.0642 80 62 52
0.411022 -0.126645 2.05914 83 62 57
0.441869 -0.126526 2.05408 88 65 57
0.468073 -0.125938 2.03236 92 69 61
0.498687 -0.12582 2.02733 83 62 59
0.529302 -0.125702 2.02231 85 64 59
0.565256 -0.12605 2.03383 83 63 54
0.601675 -0.126396 2.04527 77 59 47
0.62695 -0.125812 2.02371 69 56 48
0.657796 -0.125693 2.01864 49 40 33
0.682374 -0.125111 1.99719 36 26 34
0.611263 -0.117768 1.7363 20 17 12
0.608537 -0.115631 1.6599 41 35 35
0.606221 -0.113664 1.58957 29 18 26
0.557985 -0.108896 1.42022 47 35 37
0.568834 -0.108081 1.39078 52 43 36
0.579396 -0.107296 1.3624 55 44 40
0.589712 -0.10654 1.33509 56 46 34
0.591697 -0.105359 1.29276 48 38 28
0.58666 -0.10386 1.23928 48 37 35
0.545305 -0.100527 1.12105 98 85 68
0.554596 -0.0999752 1.10108 139 122 104
0.560199 -0.0992663 1.07557 161 138 124
0.568971 -0.0987457 1.05671 163 150 116
0.571118 -0.0979356 1.02767 170 155 124
0.582253 -0.0975777 1.01457 169 148 127
0.593674 -0.0972472 1.00245 173 153 128
0.601216 -0.09676 0.984819 172 156 130
0.608936 -0.0963006 0.968182 166 149 119
0.622529 -0.096105 0.960828 174 153 132
0.632776 -0.0957791 0.9489 186 167 135
0.642749 -0.0954543 0.937016 171 149 126
0.656465 -0.0952868 0.930667 173 154 124
0.665974 -0.0949638 0.91886 176 155 136
0.68566 -0.095031 0.920752 173 145 121
-0.822965 -0.0944025 1.83998 20 17 12
-0.784241 -0.0947635 1.86855 11 10 5
-0.774665 -0.0954623 1.91731 19 18 14
-0.812726 -0.0986869 2.13412 89 69 62
-0.788132 -0.0988172 2.14549 99 82 75
-0.754529 -0.0984624 2.12457 112 94 72
-0.73362 -0.0988321 2.15195 115 97 73
-0.700222 -0.098478 2.13107 101 77 53
-0.670919 -0.098365 2.12626 105 87 67
-0.645096 -0.0984905 2.13743 116 93 77
-0.612313 -0.0981388 2.11664 112 91 74
-0.58301 -0.0980258 2.11183 106 86 61
-0.550842 -0.0976764 2.09115 85 66 51
-0.501351 -0.0957589 1.9649 36 27 18
-0.469405 -0.0952303 1.93192 26 21 18
-0.444347 -0.0953438 1.94219 31 28 21
-0.416997 -0.0952382 1.9377 31 31 23
-0.391243 -0.0953341 1.94683 38 29 30
-0.362298 -0.0950272 1.92873 33 21 21
-0.336188 -0.0951216 1.9378 33 25 22
-0.308661 -0.0950154 1.93328 36 28 26
-0.281134 -0.0949092 1.92876 32 21 17
-0.25513 -0.0952292 1.95325 30 19 13
-0.22722 -0.0951215 1.94867 34 23 17
-0.19931 -0.0950138 1.94409 35 30 24
-0.171401 -0.0949062 1.93951 32 22 23
-0.143491 -0.0947985 1.93493 40 30 29
-0.115387 -0.0949002 1.9447 36 26 27
-0.087672 -0.0945831 1.92577 36 26 24
-0.0597623 -0.0944754 1.92119 34 23 21
-0.0318527 -0.0943677 1.91661 38 28 29
-0.00202313 -0.094673 1.94048 34 25 26
0.026269 -0.0945638 1.93584 37 26 24
0.0559036 -0.0946597 1.94535 35 23 27
0.0876736 -0.0949875 1.97095 46 31 28
0.128026 -0.096228 2.05986 61 44 37
0.155999 -0.0958799 2.03883 71 55 30
0.185944 -0.0957643 2.03392 72 52 41
0.21589 -0.0956488 2.029 68 52 39
0.242989 -0.095304 2.00812 73 53 44
0.272716 -0.0951893 2.00324 75 57 45
0.293004 -0.0944204 1.95267 42 34 21
0.318819 -0.0940956 1.93302 48 38 36
0.365615 -0.0950711 2.00443 41 30 24
0.399499 -0.0951806 2.01531 92 68 58
0.429663 -0.0950642 2.01036 101 79 66
0.455451 -0.0947244 1.98969 102 78 68
0.485396 -0.0946089 1.98478 107 84 70
0.515341 -0.0944934 1.97986 93 74 59
0.550318 -0.0945986 1.99056 96 71 67
0.580481 -0.0944822 1.98561 85 68 52
0.610645 -0.0943658 1.98066 82 65 58
0.640809 -0.0942494 1.97571 74 56 56
0.670972 -0.0941331 1.97076 58 42 27
0.677021 -0.0931639 1.90505 36 28 25
0.609198 -0.0897472 1.66453 30 26 23
0.606857 -0.0887203 1.59404 27 22 18
0.608564 -0.087888 1.53727 28 27 25
0.565901 -0.0857555 1.38711 57 45 45
0.579954 -0.085431 1.36632 47 38 31
0.582361 -0.0847911 1.32278 57 49 46
0.592231 -0.0843927 1.29651 50 35 38
0.590621 -0.0837083 1.24952 52 43 44
0.589271 -0.0830679 1.20558 54 44 35
0.581033 -0.082289 1.15146 99 85 72
0.55746 -0.0811788 1.07316 157 140 110
0.56341 -0.0808256 1.04958 153 133 124
0.571562 -0.0805389 1.03078 158 147 115
0.576952 -0.0802028 1.00833 172 150 137
0.584707 -0.0799327 0.990622 170 155 132
0.58962 -0.0796134 0.969273 178 157 128
0.600137 -0.0794227 0.957275 172 159 124
0.61038 -0.0792331 0.945323 177 161 136
0.624204 -0.0791197 0.938945 175 155 122
0.633983 -0.0789318 0.927069 179 155 127
0.644158 -0.0787574 0.916155 165 145 120
0.660237 -0.0786954 0.913516 177 151 134
0.679104 -0.0786826 0.914528 172 155 127
-0.818274 -0.0692778 1.83248 19 15 14
-0.805317 -0.0692752 1.86536 19 14 18
-0.791771 -0.0692716 1.89918 17 15 16
-0.773996 -0.0692378 1.922 21 23 20
-0.797874 -0.0695526 2.09066 74 61 55
-0.773889 -0.069481 2.10217 94 71 63
-0.745201 -0.0693703 2.09747 99 76 60
-0.720602 -0.0692963 2.10887 102 80 59
-0.691709 -0.0691848 2.10413 102 76 61
-0.662815 -0.0690733 2.09939 114 85 71
-0.630448 -0.0689275 2.07863 122 94 93
-0.605029 -0.0688503 2.08991 119 91 79
-0.5792 -0.0687715 2.10111 118 89 71
-0.547242 -0.0686273 2.08042 104 78 77
-0.510562 -0.0684246 2.0291 39 27 31
-0.47541 -0.0682305 1.98009 43 34 25
-0.445597 -0.0680959 1.96078 32 21 27
-0.418069 -0.0679897 1.95626 31 23 21
-0.390542 -0.0678835 1.95174 34 30 21
-0.364537 -0.0678027 1.96189 36 28 25
-0.336818 -0.0676957 1.95734 32 25 19
-0.307961 -0.0675649 1.93819 31 25 27
-0.281382 -0.0674818 1.94824 31 25 25
-0.25442 -0.0673973 1.95824 36 24 26
-0.227075 -0.0673112 1.96816 31 30 28
-0.199348 -0.0672237 1.97803 32 23 18
-0.170874 -0.0670943 1.95894 26 21 18
-0.142764 -0.0670054 1.96874 28 19 20
-0.114472 -0.0668962 1.9641 28 21 15
-0.0857887 -0.066805 1.97381 28 23 17
-0.0578877 -0.0666779 1.95481 34 29 26
-0.0288219 -0.0665852 1.96446 33 24 27
0.000695196 -0.0664922 1.97506 30 25 22
0.0293835 -0.0663815 1.97035 29 22 16
0.0580718 -0.0662708 1.96564 30 23 17
0.0933541 -0.0662182 2.02163 56 38 24
0.122862 -0.0661043 2.01679 69 48 31
0.15237 -0.0659905 2.01195 79 56 48
0.181878 -0.0658766 2.00711 94 69 64
0.211386 -0.0657628 2.00226 58 46 32
0.235548 -0.0656278 1.96741 118 86 45
0.261768 -0.0655057 1.94766 37 31 19
0.287578 -0.0653853 1.92798 42 36 20
0.312979 -0.0652663 1.90837 40 26 23
0.35194 -0.0651787 1.94831 43 28 25
0.384736 -0.065073 1.95837 76 55 50
0.410137 -0.0649541 1.93876 89 63 46
0.443342 -0.0648469 1.94875 93 70 56
0.476958 -0.064738 1.95868 105 83 72
0.506466 -0.0646242 1.95384 85 62 48
0.541011 -0.0645132 1.96465 82 58 56
0.565482 -0.0643965 1.94415 92 68 66
0.59499 -0.0642826 1.93931 83 57 56
0.624498 -0.0641687 1.93447 82 55 48
0.654006 -0.0640549 1.92963 66 47 40
0.677767 -0.0639423 1.91028 50 41 36
0.612009 -0.0637743 1.60909 38 29 34
0.60494 -0.0636958 1.53199 36 32 31
0.562525 -0.0636479 1.38245 39 34 30
0.572837 -0.0635719 1.35398 54 46 43
0.579183 -0.0635015 1.31896 46 34 34
0.588936 -0.0634304 1.29265 52 45 27
0.59114 -0.063369 1.25316 47 40 32
0.593317 -0.0633105 1.21574 56 43 52
0.584636 -0.0632675 1.16053 43 32 30
0.564318 -0.0632429 1.08767 102 86 71
0.56386 -0.0631973 1.05274 141 124 106
0.569202 -0.0631461 1.02921 162 148 122
0.577389 -0.0630922 1.01139 157 139 115
0.582198 -0.0630444 0.98898 170 153 125
0.584027 -0.0630026 0.962938 178 161 131
0.591942 -0.0629525 0.947224 173 157 132
0.601991 -0.0628998 0.935278 176 160 126
0.612409 -0.0628471 0.924302 185 164 143
0.622581 -0.0627953 0.913366 172 158 129
0.632507 -0.0627445 0.90247 170 149 128
0.642187 -0.0626946 0.891614 169 152 126
0.657897 -0.062634 0.889036 164 149 130
-0.821685 -0.044215 1.84896 24 19 13
-0.795197 -0.0432567 1.91687 12 11 16
-0.77725 -0.0428817 1.93972 17 12 18
-0.783993 -0.0416114 2.05024 56 46 45
-0.764471 -0.0411936 2.07594 88 64 60
-0.732176 -0.0412402 2.05619 103 79 69
-0.704075 -0.0411318 2.05157 100 73 64
-0.679595 -0.0408661 2.06201 118 91 82
-0.651303 -0.0407569 2.05736 110 84 83
-0.623011 -0.0406478 2.05272 119 90 82
-0.594719 -0.0405386 2.04808 118 95 89
-0.566426 -0.0404294 2.04344 112 89 71
-0.538134 -0.0403203 2.03879 117 90 79
-0.512315 -0.0400494 2.04901 97 72 68
-0.48155 -0.0401019 2.02951 34 25 18
-0.451167 -0.0401559 2.01007 24 20 19
-0.423067 -0.0400475 2.00546 32 19 26
-0.394966 -0.0399391 2.00085 29 18 24
-0.365348 -0.039996 1.98154 32 22 21
-0.340089 -0.0395561 2.00629 31 22 23
-0.311797 -0.0394469 2.00165 41 25 25
-0.283505 -0.0393378 1.99701 41 31 32
-0.255964 -0.0390603 2.00694 48 38 28
-0.227481 -0.0389504 2.00226 45 33 33
-0.198998 -0.0388405 1.99759 44 30 29
-0.170514 -0.0387306 1.99291 46 32 31
-0.142017 -0.0384372 2.00372 52 38 35
-0.113547 -0.0385108 1.98357 51 41 32
-0.0850641 -0.0384009 1.97889 62 48 48
-0.0565807 -0.038291 1.97422 58 43 36
-0.0280973 -0.0381811 1.96954 68 51 44
0.00142505 -0.0378837 1.98018 70 56 47
0.0313572 -0.0375847 1.99075 67 49 49
0.0602505 -0.0374733 1.98601 77 59 47
0.08749 -0.0375516 1.96606 96 69 60
0.118037 -0.0372503 1.97653 93 66 59
0.144867 -0.0373302 1.95664 104 76 65
0.175823 -0.0370273 1.96704 112 86 73
0.202243 -0.0371088 1.94722 77 61 48
0.230932 -0.0369981 1.94252 54 37 29
0.25962 -0.0368874 1.93781 30 26 15
0.288308 -0.0367767 1.9331 37 29 26
0.313703 -0.0368622 1.91345 36 29 21
0.345685 -0.0365553 1.92369 99 71 47
0.374373 -0.0364446 1.91898 123 93 43
0.403061 -0.036334 1.91427 78 52 35
0.427637 -0.0364226 1.89475 98 72 55
0.464756 -0.0359125 1.91963 76 56 47
0.493649 -0.035801 1.91489 90 65 60
0.52727 -0.0354878 1.92485 91 66 59
0.556368 -0.0353755 1.92008 96 70 57
0.585466 -0.0352632 1.9153 96 68 64
0.614564 -0.035151 1.91053 80 62 50
0.643662 -0.0350387 1.90575 66 51 46
0.667008 -0.035132 1.88644 65 50 47
0.683988 -0.0354334 1.85269 32 27 23
0.60813 -0.0388325 1.60297 31 26 30
0.609799 -0.0394987 1.54593 34 30 29
0.611717 -0.040115 1.49297 46 35 41
0.569775 -0.0420502 1.35019 48 37 41
0.576 -0.0424297 1.31511 49 34 39
0.586115 -0.042672 1.28971 42 35 43
0.588209 -0.0431287 1.25014 51 42 35
0.593824 -0.0434617 1.21929 47 37 35
0.588764 -0.0440682 1.17058 53 42 48
0.587197 -0.0445512 1.13058 48 38 37
0.573068 -0.0453395 1.07097 113 97 82
0.563472 -0.0459758 1.02197 150 137 118
0.571503 -0.0461405 1.00414 158 145 111
0.576744 -0.0463649 0.982635 167 150 124
0.578427 -0.0466641 0.956555 168 147 128
0.586201 -0.0468054 0.940829 175 158 138
0.593592 -0.0469481 0.925166 171 158 141
0.601243 -0.0470775 0.910492 173 145 124
0.611166 -0.0471493 0.899574 154 116 93
0.626876 -0.0470887 0.896996 160 104 87
0.63643 -0.0471619 0.886139 177 146 125
0.654808 -0.0470421 0.887252 184 156 134
-0.829498 -0.0185593 1.87864 19 15 14
-0.81216 -0.0178978 1.89959 15 10 14
-0.794533 -0.0172093 1.92153 13 9 6
-0.784741 -0.015879 1.97165 17 16 12
-0.766073 -0.0151348 1.99549 60 40 42
-0.751184 -0.0140174 2.03547 108 80 69
-0.723465 -0.0139105 2.03092 115 88 67
-0.695747 -0.0138035 2.02637 116 87 69
-0.668028 -0.0136966 2.02182 113 83 72
-0.64031 -0.0135896 2.01727 115 85 85
-0.612592 -0.0134827 2.01272 119 95 67
-0.584873 -0.0133757 2.00817 114 89 84
-0.560005 -0.0129178 2.01858 121 93 82
-0.532096 -0.0128101 2.014 127 98 82
-0.509122 -0.0119977 2.0392 103 80 72
-0.476277 -0.0125947 2.00484 98 73 68
-0.446281 -0.0128409 1.98543 107 85 71
-0.418563 -0.012734 1.98088 103 79 69
-0.392548 -0.0122717 1.9911 106 81 76
-0.364638 -0.012164 1.98652 111 83 79
-0.336728 -0.0120563 1.98194 108 87 60
-0.308819 -0.0119486 1.97736 112 81 76
-0.280909 -0.0118409 1.97278 111 85 70
-0.253746 -0.0113742 1.98281 115 87 66
-0.226201 -0.010906 1.99277 119 91 80
-0.198273 -0.0104363 2.00267 119 92 73
-0.169444 -0.0110489 1.96897 117 89 78
-0.141343 -0.0109405 1.96436 101 78 60
-0.113032 -0.0104693 1.9742 110 86 74
-0.085141 -0.0107236 1.95514 117 84 79
-0.0576322 -0.0109794 1.93614 119 91 80
-0.0289392 -0.0105067 1.94591 113 87 72
0.000136197 -0.0100326 1.95563 118 91 80
0.0284283 -0.00992348 1.95098 118 91 74
0.0567205 -0.00981431 1.94634 116 87 69
0.0850126 -0.00970514 1.9417 117 90 73
0.113305 -0.00959598 1.93706 119 90 72
0.139666 -0.00985617 1.91824 112 84 60
0.169889 -0.00937764 1.92777 117 91 74
0.198181 -0.00926848 1.92313 100 73 54
0.226473 -0.00915931 1.91848 100 72 60
0.254765 -0.00905014 1.91384 96 74 61
0.283058 -0.00894098 1.9092 74 54 47
0.31135 -0.00883181 1.90455 61 46 39
0.339642 -0.00872264 1.89991 61 44 36
0.367934 -0.00861348 1.89527 60 49 29
0.396226 -0.00850431 1.89063 64 49 28
0.420675 -0.00877188 1.87213 78 56 45
0.45281 -0.00828598 1.88134 47 41 27
0.481103 -0.00817681 1.8767 99 68 63
0.513812 -0.00768867 1.88581 88 66 55
0.547233 -0.00717195 1.89585 84 65 48
0.570779 -0.00746886 1.87647 92 72 61
0.599262 -0.00735896 1.87179 93 71 60
0.627745 -0.00724905 1.86712 69 56 39
0.656229 -0.00713915 1.86244 71 54 47
0.679148 -0.00741264 1.8442 47 38 31
0.610416 -0.0153041 1.55026 32 27 21
0.612316 -0.0166152 1.49718 34 27 21
0.566707 -0.0207465 1.34636 33 29 18
0.576538 -0.0213548 1.31888 47 38 29
0.578973 -0.0223536 1.27813 49 34 37
0.588726 -0.0228847 1.25377 50 41 46
0.59433 -0.0236128 1.22284 60 51 46
0.592897 -0.0246782 1.18066 54 33 38
0.594616 -0.0255247 1.14623 50 39 37
0.58667 -0.0268221 1.09684 57 45 33
0.570086 -0.0284889 1.03541 120 104 91
0.566185 -0.0294605 0.99777 156 133 119
0.571282 -0.0299578 0.976241 156 138 118
0.573423 -0.03057 0.951058 164 150 124
0.575524 -0.0311565 0.926917 160 145 124
0.582664 -0.0314908 0.91126 111 35 37
0.592639 -0.031685 0.900311 123 30 23
0.605652 -0.0317382 0.894037 135 25 38
0.615203 -0.031934 0.883158 128 37 32
0.625193 -0.0321023 0.873241 116 69 59
0.637756 -0.0321572 0.867041 152 130 116
-0.832889 0.00726642 1.89526 18 16 21
-0.815746 0.00827995 1.91733 17 17 9
-0.802365 0.00979209 1.95351 27 18 13
-0.780144 0.010391 1.96335 51 38 30
-0.753505 0.0104938 1.95898 105 81 71
-0.742408 0.0125892 2.01109 118 92 75
-0.711066 0.0121575 1.99142 115 88 71
-0.683907 0.0122623 1.98697 123 91 76
-0.656749 0.0123671 1.98251 121 95 78
-0.63301 0.0130113 1.99313 129 98 77
-0.602433 0.0125767 1.9736 121 94 87
-0.578311 0.0132224 1.98416 124 96 75
-0.548116 0.0127862 1.96468 120 90 82
-0.523612 0.0134335 1.97518 130 99 79
-0.49855 0.0140433 1.98455 131 98 81
-0.471023 0.0141495 1.98003 120 100 67
-0.443496 0.0142557 1.97552 126 98 74
-0.415968 0.0143619 1.971 128 95 90
-0.386864 0.0139611 1.95274 119 91 80
-0.360914 0.0145744 1.96196 129 99 75
-0.333387 0.0146806 1.95745 124 97 90
-0.304816 0.0142777 1.93928 119 91 77
-0.278333 0.014893 1.94841 115 88 79
-0.251548 0.015549 1.95854 124 95 81
-0.223279 0.0151055 1.93938 123 100 84
-0.196111 0.0157629 1.94944 125 95 85
-0.168224 0.0153179 1.93034 126 95 90
-0.140697 0.0154241 1.92583 116 88 67
-0.11317 0.0155303 1.92131 117 91 68
-0.0856431 0.0156365 1.91679 115 87 65
-0.058116 0.0157427 1.91227 122 92 82
-0.0298007 0.0164046 1.92215 117 88 74
-0.0020823 0.0165116 1.9176 112 86 69
0.0256361 0.0166185 1.91305 113 84 68
0.0533544 0.0167255 1.9085 111 93 81
0.082626 0.017391 1.91822 123 91 70
0.108791 0.0169394 1.8994 110 85 63
0.138445 0.0176064 1.90906 110 81 67
0.164228 0.0171533 1.89031 108 80 76
0.194265 0.0178218 1.8999 114 81 72
0.222174 0.0179295 1.89532 111 82 66
0.250084 0.0180372 1.89074 111 83 69
0.277993 0.0181449 1.88616 110 88 75
0.305903 0.0182526 1.88158 103 82 61
0.333813 0.0183603 1.877 98 72 59
0.361722 0.018468 1.87242 87 64 56
0.389632 0.0185756 1.86784 79 59 50
0.417542 0.0186833 1.86326 71 52 46
0.445451 0.018791 1.85868 102 76 63
0.46913 0.0183298 1.84027 97 70 63
0.50127 0.0190064 1.84952 93 71 58
0.533793 0.0196845 1.8587 92 71 66
0.55709 0.0192218 1.84036 99 68 63
0.584999 0.0193295 1.83578 91 69 56
0.612909 0.0194372 1.83119 83 65 53
0.640819 0.0195449 1.82661 69 52 34
0.663159 0.0190784 1.80843 68 53 46
0.679767 0.0180768 1.7777 47 29 25
0.606782 0.00847942 1.54491 19 17 18
0.608528 0.00647301 1.49173 44 38 38
0.614763 0.00499708 1.4513 33 27 29
0.569617 -0.000940221 1.30728 47 35 39
0.576139 -0.00209926 1.2751 54 46 44
0.585788 -0.00293043 1.2507 54 50 38
0.591287 -0.00405394 1.21972 51 44 34
0.593389 -0.00538792 1.18411 42 35 25
0.595097 -0.00668397 1.1496 47 38 33
0.590422 -0.00839936 1.10577 60 49 47
0.585696 -0.010036 1.06403 74 62 50
0.566614 -0.0126359 1.00078 129 114 91
0.565814 -0.0138232 0.969799 159 144 123
0.567809 -0.0147629 0.94458 149 143 109
0.570382 -0.0156214 0.921341 132 99 82
0.577395 -0.0161469 0.90567 126 37 43
0.587887 -0.0164222 0.895651 142 33 38
0.594873 -0.0169084 0.881021 135 26 32
0.607544 -0.0170174 0.874793 141 30 46
0.616682 -0.0173374 0.86396 125 28 37
0.626273 -0.0176162 0.854089 149 122 101
-0.8238 0.0316348 1.87453 9 7 8
-0.823915 0.0354572 1.94941 42 29 20
-0.801692 0.0361801 1.95823 85 66 51
-0.77523 0.0362822 1.95389 110 91 77
-0.748769 0.0363843 1.94955 109 87 74
-0.726188 0.0371616 1.95936 118 91 70
-0.699549 0.0372644 1.95499 121 98 82
-0.676165 0.0379918 1.96363 130 97 92
-0.649362 0.0380952 1.95923 119 94 72
-0.622558 0.0381986 1.95483 124 97 78
-0.595755 0.0383021 1.95043 122 98 88
-0.568952 0.0384055 1.94603 129 102 91
-0.542149 0.0385089 1.94163 123 90 85
-0.515346 0.0386123 1.93723 126 101 79
-0.490826 0.0393972 1.94673 130 101 95
-0.463845 0.0395013 1.9423 127 101 84
-0.434937 0.0389226 1.92404 125 97 86
-0.408134 0.039026 1.91964 127 99 88
-0.382903 0.0398136 1.92902 120 94 79
-0.354528 0.0392328 1.91084 127 99 88
-0.327725 0.0393363 1.90645 127 93 81
-0.300922 0.0394397 1.90205 123 91 76
-0.27498 0.04023 1.9113 120 92 88
-0.248 0.0403341 1.90688 124 97 86
-0.221019 0.0404382 1.90245 132 98 88
-0.194368 0.0412313 1.91159 119 89 78
-0.167209 0.0413361 1.90713 125 97 86
-0.140077 0.0407506 1.88917 118 91 82
-0.112893 0.0415457 1.89822 114 91 83
-0.0861157 0.0409588 1.88031 130 99 94
-0.059135 0.0410629 1.87588 122 92 84
-0.0321543 0.041167 1.87146 127 99 78
-0.00327538 0.042712 1.89479 119 95 69
0.0228986 0.0420696 1.87594 117 87 79
0.0500569 0.0421744 1.87148 121 92 78
0.0772151 0.0422792 1.86702 120 86 76
0.104373 0.042384 1.86257 119 83 67
0.131532 0.0424888 1.85811 115 88 71
0.15869 0.0425936 1.85365 108 83 63
0.188171 0.0434507 1.86337 110 80 69
0.213006 0.0428032 1.84474 104 75 71
0.245383 0.0443617 1.8675 108 82 65
0.27291 0.0444679 1.86298 110 84 67
0.297569 0.0438728 1.84542 101 78 62
0.327964 0.0446803 1.85394 108 83 78
0.355491 0.0447865 1.84943 99 71 59
0.379618 0.0441894 1.83195 108 81 64
0.406967 0.0442949 1.82746 103 79 69
0.434317 0.0444005 1.82298 107 80 69
0.461667 0.044506 1.81849 96 79 63
0.493127 0.0453176 1.82684 100 72 68
0.520654 0.0454238 1.82232 93 72 53
0.548181 0.0455301 1.81781 94 73 72
0.575708 0.0456363 1.81329 97 72 50
0.603235 0.0457425 1.80877 91 68 54
0.625764 0.0451392 1.79156 81 61 37
0.658289 0.0459549 1.79974 78 60 48
0.674697 0.0445846 1.76897 61 44 37
0.690792 0.0432663 1.7393 27 22 19
0.605172 0.0293436 1.4872 34 29 23
0.615346 0.027843 1.45539 34 29 25
0.616797 0.0254063 1.40732 32 25 17
0.572819 0.0179094 1.27107 55 48 42
0.582352 0.0167781 1.24663 55 48 42
0.588238 0.0153142 1.21656 50 39 37
0.593881 0.0139024 1.18756 50 40 38
0.598786 0.0124878 1.15869 56 48 45
0.594178 0.0101869 1.11474 56 42 41
0.58952 0.007992 1.07288 49 46 41
0.588347 0.00623536 1.03876 81 69 53
0.563285 0.00231581 0.968022 127 112 93
0.56822 0.00132604 0.947459 147 130 110
0.567701 -0.000109531 0.919474 104 76 65
0.575271 -0.000770556 0.904717 109 28 34
0.579909 -0.0016553 0.886282 149 81 78
0.586713 -0.00231927 0.87165 142 82 81
0.593834 -0.00292894 0.858006 73 39 37
0.606108 -0.00309395 0.851833 32 23 26
0.615477 -0.00348258 0.841978 68 52 52
-0.831585 0.0583803 1.9044 56 42 39
-0.814425 0.0600477 1.9266 102 85 55
-0.788469 0.0601479 1.92234 105 83 72
-0.762513 0.060248 1.91808 111 84 73
-0.740299 0.0611344 1.92694 120 94 79
-0.714179 0.0612352 1.92265 114 85 69
-0.691758 0.062189 1.93252 119 92 83
-0.66546 0.0622905 1.92821 123 97 80
-0.639163 0.0623919 1.92389 121 98 82
-0.609699 0.0616383 1.90551 120 93 74
-0.589326 0.0633848 1.92822 118 89 83
-0.56027 0.0626963 1.91094 122 93 79
-0.536403 0.063589 1.91953 127 95 74
-0.507675 0.0628993 1.90231 126 95 75
-0.48348 0.0637932 1.91085 119 93 94
-0.457018 0.0638954 1.90651 122 100 77
-0.428782 0.0632037 1.88937 118 94 82
-0.404095 0.0640996 1.89782 121 92 78
-0.377634 0.0642017 1.89348 128 102 87
-0.349889 0.0635081 1.87642 123 101 80
-0.324711 0.0644059 1.88479 122 94 80
-0.297294 0.0637111 1.86779 129 99 89
-0.271788 0.0646101 1.87611 129 98 80
-0.246006 0.0655769 1.88542 120 93 64
-0.219367 0.0656797 1.88105 113 87 64
-0.192728 0.0657825 1.87668 115 95 70
-0.165941 0.0650185 1.85874 125 87 78
-0.139449 0.065988 1.86794 123 90 75
-0.113018 0.0652227 1.85005 124 91 84
-0.0865567 0.0653248 1.84571 124 95 77
-0.0600952 0.0654269 1.84137 125 97 83
-0.0336336 0.065529 1.83703 131 98 91
-0.00625359 0.066502 1.84608 118 90 76
0.0213973 0.0674093 1.85405 122 99 85
0.0482004 0.0675127 1.84965 120 95 73
0.0736639 0.0668103 1.83297 115 88 81
0.100303 0.0669131 1.82859 120 91 75
0.126942 0.0670159 1.82422 115 85 77
0.153581 0.0671187 1.81985 121 89 74
0.182216 0.0680298 1.82766 113 85 81
0.20686 0.0673243 1.81111 114 87 70
0.235822 0.0682366 1.81886 113 87 72
0.265319 0.0692178 1.82757 112 83 69
0.289428 0.0684435 1.81006 104 75 67
0.319281 0.069426 1.81871 108 87 70
0.346262 0.0695301 1.81428 105 78 69
0.373242 0.0696342 1.80986 101 77 67
0.400223 0.0697383 1.80543 110 87 73
0.423444 0.0689606 1.78807 111 80 77
0.450247 0.069064 1.78367 108 78 67
0.481165 0.0700506 1.79215 103 67 67
0.508146 0.0701547 1.78772 102 75 54
0.535126 0.0702588 1.78329 97 75 52
0.557459 0.0694777 1.76608 97 75 64
0.584262 0.0695811 1.76168 88 68 59
0.611065 0.0696845 1.75728 84 65 51
0.637868 0.0697879 1.75288 89 69 60
0.664671 0.0698914 1.74848 70 56 45
0.686364 0.0691745 1.73242 45 28 20
0.614115 0.0538844 1.50979 34 27 35
0.620007 0.0513052 1.46818 37 33 30
0.617364 0.0476255 1.4113 45 36 37
0.623309 0.0453801 1.37489 47 38 33
0.579404 0.0363374 1.24349 58 46 50
0.581631 0.0340108 1.20665 50 39 37
0.590723 0.0327116 1.18432 51 39 41
0.592847 0.0305848 1.15062 53 44 37
0.597939 0.0289366 1.12373 60 40 49
0.59616 0.0265279 1.08651 55 44 48
0.59167 0.0239086 1.0466 60 46 43
0.587293 0.0214232 1.00876 91 78 69
0.566217 0.0171387 0.946566 105 91 82
0.568102 0.0156115 0.922288 55 24 29
0.569991 0.014151 0.899051 117 28 46
0.5745 0.0130343 0.880595 146 56 58
0.581835 0.012262 0.866886 165 117 115
0.588842 0.0114884 0.85323 166 116 128
0.595522 0.0107135 0.839628 107 62 65
0.607466 0.0104928 0.8335 35 21 21
-0.835327 0.0848844 1.92223 95 66 62
-0.809535 0.0849839 1.918 94 79 56
-0.779677 0.0841351 1.90057 110 87 73
-0.754049 0.0842339 1.89636 123 95 84
-0.732158 0.0852825 1.9053 122 92 92
-0.702792 0.0844317 1.88795 118 88 78
-0.680574 0.0854815 1.89684 122 93 85
-0.654782 0.085581 1.89261 129 103 90
-0.62899 0.0856805 1.88837 124 96 95
-0.606116 0.0867329 1.89715 133 99 98
-0.577405 0.0858796 1.87991 127 98 80
-0.551613 0.0859791 1.87568 126 94 81
-0.525821 0.0860786 1.87144 131 97 85
-0.502292 0.0871335 1.88012 126 98 86
-0.478434 0.0881896 1.88874 125 108 80
-0.452314 0.0882904 1.88445 131 101 90
-0.426194 0.0883912 1.88016 128 101 90
-0.400074 0.088492 1.87588 123 96 87
-0.373954 0.0885928 1.87159 118 91 74
-0.347834 0.0886936 1.8673 127 95 84
-0.320599 0.0878346 1.8503 125 96 82
-0.295594 0.0888951 1.85873 121 98 82
-0.2679 0.0870738 1.82912 111 87 75
-0.244029 0.0901385 1.86385 111 90 73
-0.217234 0.0891975 1.84587 126 97 79
-0.191434 0.0903414 1.85522 125 90 86
-0.165137 0.0904429 1.8509 122 100 79
-0.138839 0.0905444 1.84659 118 97 80
-0.112541 0.0906459 1.84227 127 100 83
-0.086634 0.0897014 1.82444 125 93 80
-0.0610381 0.0888361 1.8077 125 93 80
-0.035082 0.0889362 1.80345 129 92 83
-0.00827393 0.0900038 1.81158 128 100 78
0.0189467 0.0911532 1.82069 128 95 86
0.0452443 0.0912547 1.81638 126 97 83
0.071542 0.0913562 1.81206 122 92 81
0.0962062 0.0904069 1.79444 124 94 83
0.124137 0.0915591 1.80343 120 93 76
0.150435 0.0916606 1.79912 119 87 74
0.178732 0.0927338 1.80701 108 80 68
0.20303 0.0918635 1.79049 117 90 81
0.231655 0.092938 1.79832 113 85 73
0.255625 0.0920664 1.78185 107 81 68
0.284578 0.0931422 1.78964 101 79 58
0.31104 0.0932443 1.7853 102 75 66
0.340733 0.0944033 1.794 96 70 47
0.363963 0.0934485 1.77661 104 78 63
0.390424 0.0935506 1.77227 105 78 69
0.416886 0.0936527 1.76793 104 74 64
0.439709 0.0927767 1.75165 102 75 58
0.473929 0.0949172 1.77215 100 69 64
0.496271 0.093959 1.7549 103 80 66
0.522732 0.0940612 1.75056 96 72 60
0.549194 0.0941633 1.74621 91 71 62
0.571197 0.0932841 1.73007 96 69 62
0.597494 0.0933856 1.72575 97 73 71
0.623792 0.093487 1.72144 83 61 50
0.65009 0.0935885 1.71712 74 58 45
0.670847 0.0926242 1.70013 53 42 48
0.696967 0.092725 1.69585 33 29 20
0.616511 0.0735349 1.46356 26 21 27
0.622136 0.0705841 1.42399 37 37 29
0.619536 0.0663965 1.3701 34 24 35
0.57299 0.0551301 1.23357 49 44 40
0.57857 0.0529022 1.20341 61 45 55
0.58756 0.0513301 1.18104 53 44 45
0.589577 0.048767 1.14728 54 42 44
0.595114 0.0468603 1.1213 59 44 51
0.599994 0.044951 1.09543 60 50 51
0.598455 0.0422135 1.06017 53 48 45
0.593625 0.039142 1.02126 52 42 32
0.592588 0.0367279 0.990094 97 83 82
0.566034 0.0310017 0.921328 120 52 63
0.570384 0.0295724 0.901811 101 31 23
0.574887 0.028224 0.883313 119 28 27
0.576951 0.0266252 0.862082 142 67 72
0.581156 0.025356 0.844678 176 111 115
0.591096 0.024832 0.835734 154 90 104
0.600146 0.0242242 0.825892 72 46 55
-0.821868 0.107366 1.88809 119 89 81
-0.79268 0.106445 1.87178 124 94 94
-0.767516 0.106542 1.86765 119 95 69
-0.742352 0.106639 1.86352 122 106 80
-0.720612 0.107756 1.87147 117 94 86
-0.698868 0.108968 1.88047 119 95 71
-0.669984 0.107952 1.86316 113 83 72
-0.644669 0.108049 1.85901 119 95 67
-0.619355 0.108147 1.85485 123 98 94
-0.594041 0.108245 1.8507 128 95 86
-0.568727 0.108342 1.84655 128 97 79
-0.546 0.109558 1.85538 129 97 82
-0.518099 0.108538 1.83824 130 101 83
-0.495044 0.109754 1.84702 131 109 88
-0.471486 0.110879 1.85467 126 99 82
-0.445858 0.110978 1.85047 118 89 71
-0.42023 0.111076 1.84626 126 99 78
-0.393132 0.110147 1.83029 118 90 78
-0.367654 0.110246 1.82611 118 92 75
-0.342176 0.110344 1.82193 128 100 88
-0.316698 0.110442 1.81775 123 91 76
-0.292088 0.111571 1.82523 123 90 75
-0.265742 0.110639 1.80939 123 88 82
-0.241451 0.112894 1.82949 122 95 78
-0.215204 0.111868 1.81261 123 89 79
-0.189867 0.113093 1.82102 129 93 97
-0.163947 0.112065 1.8042 120 90 80
-0.138319 0.112164 1.8 123 90 73
-0.11249 0.113391 1.80832 120 90 82
-0.0866983 0.113491 1.80409 125 93 82
-0.0614344 0.112461 1.78738 124 96 84
-0.0358062 0.11256 1.78317 132 99 82
-0.0084656 0.11492 1.80382 121 92 76
0.0164704 0.113889 1.78716 130 99 79
0.0422625 0.113989 1.78293 127 96 76
0.0680547 0.114088 1.7787 118 89 73
0.0938468 0.114188 1.77446 124 95 77
0.119639 0.114287 1.77023 119 95 85
0.145431 0.114387 1.766 120 90 79
0.171223 0.114486 1.76176 109 83 66
0.197015 0.114586 1.75753 119 89 78
0.225139 0.115822 1.76548 108 81 62
0.251095 0.115922 1.76122 97 76 57
0.279711 0.11716 1.76909 97 68 64
0.305831 0.117261 1.76481 105 72 67
0.331951 0.117361 1.76052 96 73 57
0.35492 0.116322 1.74418 105 83 70
0.380876 0.116423 1.73993 104 84 75
0.406832 0.116523 1.73567 99 77 64
0.432788 0.116623 1.73141 102 74 63
0.462551 0.117865 1.73909 110 85 80
0.488671 0.117966 1.7348 94 75 58
0.514791 0.118067 1.73051 100 77 69
0.536612 0.117024 1.71437 103 82 63
0.567031 0.118268 1.72194 105 75 67
0.593151 0.118369 1.71765 96 70 53
0.60969 0.116178 1.68981 90 71 56
0.635482 0.116277 1.68558 78 56 42
0.661274 0.116377 1.68134 73 51 37
0.687066 0.116477 1.67711 51 41 29
0.707412 0.115428 1.66121 30 15 20
0.614758 0.091298 1.41149 40 32 30
0.620088 0.08803 1.37397 47 29 25
0.625452 0.0849499 1.33853 51 42 37
0.576013 0.0716987 1.20109 55 45 43
0.581259 0.069182 1.17196 56 43 37
0.586839 0.0668545 1.14487 57 46 44
0.595581 0.065197 1.12458 52 45 35
0.597075 0.0623839 1.09293 46 35 33
0.605247 0.0608181 1.07378 57 49 38
0.600555 0.0572295 1.03476 50 39 33
0.593012 0.053348 0.993069 58 39 35
0.591763 0.0506184 0.962907 74 35 30
0.570777 0.0449937 0.904571 107 27 16
0.575275 0.0434138 0.886032 115 24 23
0.574696 0.0411565 0.860996 125 25 23
0.581531 0.0400553 0.847309 143 68 75
0.58598 0.0386631 0.830872 166 96 106
0.594917 0.0379459 0.821028 166 133 124
-0.817204 0.131441 1.8804 109 90 75
-0.7843 0.129201 1.85191 113 86 79
-0.755718 0.128128 1.83567 119 97 74
-0.731005 0.128224 1.83162 122 97 93
-0.706292 0.128319 1.82756 126 100 83
-0.684847 0.129585 1.83559 121 92 86
-0.659984 0.129681 1.83151 122 97 75
-0.635121 0.129777 1.82743 110 84 87
-0.610258 0.129873 1.82335 118 89 75
-0.585395 0.129969 1.81927 121 92 78
-0.560531 0.130065 1.81519 117 89 85
-0.538035 0.131335 1.82304 124 99 77
-0.513022 0.131432 1.81894 126 90 92
-0.490075 0.132704 1.82672 125 100 80
-0.466827 0.133977 1.83445 121 100 79
-0.439747 0.132898 1.81846 125 99 76
-0.412968 0.131818 1.80252 128 92 76
-0.38942 0.133092 1.8102 117 90 79
-0.362941 0.132011 1.79431 128 98 88
-0.337927 0.132107 1.7902 130 102 88
-0.313929 0.133383 1.79781 127 96 78
-0.287901 0.1323 1.78199 124 93 98
-0.262887 0.132397 1.77789 129 99 75
-0.237874 0.132493 1.77378 125 97 83
-0.213274 0.133772 1.78129 126 101 70
-0.188373 0.135051 1.78875 122 90 79
-0.162946 0.133966 1.77303 128 97 92
-0.137745 0.135246 1.78044 126 99 88
-0.112619 0.13416 1.76477 118 92 77
-0.0874549 0.134257 1.76064 120 90 79
-0.0622911 0.134354 1.75651 120 88 77
-0.0371274 0.134451 1.75238 128 98 88
-0.0119636 0.134548 1.74826 131 95 83
0.014139 0.135833 1.75552 137 104 87
0.0394531 0.13593 1.75136 124 88 76
0.0647671 0.136028 1.74721 124 96 75
0.0900811 0.136126 1.74305 119 91 70
0.115395 0.136223 1.7389 114 91 75
0.140709 0.136321 1.73475 106 84 61
0.162342 0.134038 1.7081 113 80 61
0.187355 0.134134 1.704 103 76 65
0.218987 0.137914 1.7345 94 61 56
0.246756 0.139204 1.74148 104 76 64
0.269943 0.138111 1.72613 112 81 76
0.295421 0.138209 1.72195 118 95 81
0.320899 0.138307 1.71777 107 85 71
0.346377 0.138405 1.71359 109 81 67
0.371855 0.138504 1.70941 104 76 72
0.397333 0.138602 1.70523 116 89 80
0.422811 0.1387 1.70105 113 85 74
0.451782 0.139996 1.70784 114 81 72
0.47741 0.140094 1.70363 106 78 67
0.503039 0.140193 1.69943 99 77 54
0.528667 0.140292 1.69522 104 81 73
0.554295 0.140391 1.69102 101 80 63
0.579923 0.14049 1.68681 91 70 43
0.601156 0.139389 1.67178 92 70 49
0.626634 0.139487 1.6676 92 74 72
0.652112 0.139585 1.66342 78 58 57
0.672304 0.138372 1.64751 58 40 36
0.692621 0.137267 1.63263 42 31 29
0.619065 0.114283 1.42323 34 22 24
0.62064 0.109663 1.37784 39 31 28
0.61807 0.104382 1.32683 38 33 29
0.572944 0.0902222 1.19778 37 33 30
0.581742 0.0881045 1.17535 59 48 42
0.584096 0.0847785 1.14242 58 48 46
0.589451 0.0822172 1.11635 57 51 39
0.597532 0.0803119 1.09613 56 45 43
0.605699 0.0785145 1.07695 51 37 37
0.603947 0.0749576 1.0426 53 44 35
0.602503 0.071617 1.0103 61 46 41
0.59774 0.0678332 0.974345 48 38 36
0.588229 0.0633856 0.932871 86 35 34
0.57308 0.0581632 0.884976 120 29 36
0.575075 0.0560193 0.863656 122 34 24
0.579215 0.054314 0.846183 124 30 44
0.583604 0.0527171 0.829718 163 100 119
0.587583 0.0511188 0.813321 148 120 108
-0.800498 0.151264 1.83596 117 87 76
-0.775936 0.151359 1.83193 111 82 76
-0.747657 0.150135 1.81572 124 97 86
-0.726811 0.151548 1.82387 118 90 76
-0.695418 0.149003 1.79557 126 93 78
-0.67442 0.150417 1.8037 125 98 79
-0.653122 0.151833 1.81178 124 94 83
-0.625596 0.150606 1.79569 123 97 62
-0.601183 0.1507 1.79168 127 95 84
-0.579435 0.152117 1.79968 126 99 80
-0.554872 0.152212 1.79565 120 91 87
-0.530309 0.152307 1.79162 130 99 81
-0.50796 0.153726 1.79953 124 99 77
-0.479121 0.151171 1.77165 121 94 77
-0.458534 0.153917 1.79142 130 102 80
-0.435583 0.155339 1.79922 119 87 72
-0.41072 0.155435 1.79514 119 96 78
-0.384395 0.154203 1.77925 134 100 75
-0.359682 0.154298 1.77519 134 101 82
-0.334969 0.154394 1.77114 124 91 84
-0.311267 0.155818 1.77882 122 94 90
-0.286404 0.155914 1.77474 126 98 77
-0.26083 0.15468 1.75897 125 97 75
-0.235557 0.153444 1.74325 125 98 77
-0.211814 0.156202 1.7625 122 93 87
-0.186951 0.156298 1.75842 125 98 79
-0.162088 0.156394 1.75434 131 101 77
-0.137224 0.15649 1.75026 122 95 74
-0.112361 0.156586 1.74618 122 89 84
-0.087498 0.156682 1.7421 118 89 73
-0.0626348 0.156778 1.73802 118 87 67
-0.0377716 0.156874 1.73394 122 93 98
-0.0129084 0.156969 1.72986 119 88 83
0.0119548 0.157065 1.72578 128 99 85
0.036818 0.157161 1.7217 119 91 80
0.0629245 0.158595 1.72899 115 86 78
0.0879379 0.158692 1.72488 125 93 80
0.111408 0.157449 1.70946 109 83 70
0.134577 0.156205 1.69408 119 90 60
0.15929 0.156301 1.69003 130 98 57
0.178019 0.152373 1.65223 51 38 21
0.196236 0.148686 1.61663 67 63 51
0.228838 0.153903 1.65547 71 57 46
0.265478 0.16071 1.70732 88 69 52
0.290642 0.160807 1.70319 115 88 71
0.315805 0.160904 1.69906 116 90 77
0.340969 0.161001 1.69493 119 90 84
0.366133 0.161099 1.6908 109 84 80
0.391296 0.161196 1.68667 100 78 65
0.41646 0.161293 1.68254 102 84 72
0.441624 0.16139 1.67842 104 77 70
0.466788 0.161487 1.67429 106 81 59
0.491951 0.161584 1.67016 108 77 72
0.513167 0.160333 1.6551 105 82 68
0.542279 0.161778 1.6619 101 83 73
0.563194 0.160526 1.64689 92 76 53
0.588207 0.160622 1.64279 96 68 56
0.613221 0.160719 1.63868 81 63 53
0.638234 0.160815 1.63458 80 62 42
0.658398 0.15956 1.61969 74 54 43
0.688261 0.161008 1.62637 61 39 26
0.697824 0.157045 1.59008 29 29 19
0.621192 0.131297 1.38171 37 34 27
0.622569 0.126333 1.33835 43 31 35
0.623844 0.121611 1.29711 35 30 27
0.57229 0.104686 1.16037 54 47 29
0.578129 0.101799 1.13417 71 57 57
0.589915 0.10039 1.11961 46 40 40
0.588404 0.0961425 1.08303 57 46 54
0.603263 0.0955938 1.07533 63 48 51
0.607934 0.0929453 1.05142 50 39 45
0.605957 0.0890592 1.01808 55 44 40
0.598157 0.0841809 0.977271 55 46 39
0.594322 0.0802876 0.944233 53 44 39
0.592841 0.0770094 0.916068 79 26 34
0.578093 0.0713771 0.870092 124 29 37
0.577569 0.0685874 0.845979 145 105 93
0.579165 0.0662906 0.825727 162 135 116
0.583043 0.0644876 0.809309 158 142 119
-0.795861 0.174291 1.82809 120 92 80
-0.764076 0.171582 1.80072 119 84 78
-0.73995 0.171675 1.79676 124 96 84
-0.715825 0.171768 1.7928 119 90 72
-0.688598 0.170525 1.77779 128 95 90
-0.667574 0.171954 1.78489 122 98 86
-0.64062 0.17071 1.76992 120 99 82
-0.616631 0.170803 1.76598 134 105 89
-0.597752 0.173572 1.78397 126 99 80
-0.571072 0.172327 1.76905 129 98 93
-0.546946 0.17242 1.76509 119 91 80
-0.522821 0.172513 1.76113 134 102 89
-0.498695 0.172606 1.75717 125 101 67
-0.476441 0.17404 1.76407 129 102 85
-0.450444 0.172792 1.74925 122 94 83
-0.427917 0.174227 1.7561 124 94 84
-0.405263 0.175798 1.76399 129 99 88
-0.380851 0.175892 1.75998 126 98 74
-0.356438 0.175986 1.75597 133 104 86
-0.330869 0.174602 1.74018 129 95 86
-0.306607 0.174696 1.7362 126 99 90
-0.283201 0.176269 1.74396 130 97 92
-0.258082 0.174883 1.72823 129 96 89
-0.23382 0.174976 1.72425 129 96 91
-0.21037 0.178033 1.7436 128 98 87
-0.185552 0.176646 1.72793 125 99 74
-0.161139 0.17674 1.72392 130 100 90
-0.136727 0.176834 1.71992 126 99 78
-0.112314 0.176928 1.71591 126 94 81
-0.087902 0.177022 1.71191 116 84 69
-0.0634896 0.177117 1.7079 111 83 69
-0.0390772 0.177211 1.70389 116 87 73
-0.0146648 0.177305 1.69989 119 90 72
0.0106941 0.178886 1.70733 119 86 67
0.0352568 0.178981 1.7033 119 87 74
0.0598195 0.179076 1.69926 80 57 49
0.0843821 0.17917 1.69523 64 46 36
0.107397 0.177776 1.67986 118 96 83
0.130112 0.176381 1.66453 95 80 49
0.151013 0.173765 1.64001 58 45 29
0.16937 0.169656 1.6043 58 52 40
0.190982 0.168391 1.59021 54 45 38
0.22716 0.176755 1.6486 57 38 31
0.251422 0.176849 1.64462 35 22 14
0.283483 0.181422 1.67416 101 73 62
0.308196 0.181517 1.67011 100 81 66
0.332909 0.181612 1.66605 112 79 70
0.357622 0.181708 1.66199 117 84 75
0.382335 0.181803 1.65794 106 77 71
0.407048 0.181898 1.65388 103 78 56
0.435262 0.18349 1.66085 113 83 85
0.460125 0.183586 1.65677 99 81 67
0.484988 0.183682 1.65269 92 70 56
0.509851 0.183778 1.64861 101 80 63
0.530612 0.182375 1.63361 98 77 58
0.555325 0.182471 1.62955 88 69 55
0.575635 0.181066 1.61462 97 74 60
0.600198 0.181161 1.61059 83 64 58
0.620057 0.179754 1.59573 99 70 62
0.649323 0.18135 1.60252 83 59 47
0.67889 0.182947 1.60927 73 51 38
0.693294 0.180037 1.58371 51 41 42
0.617886 0.151837 1.37778 32 23 18
0.61914 0.146314 1.33433 49 43 31
0.620801 0.141197 1.29399 38 31 25
0.62561 0.137171 1.26156 40 33 17
0.578597 0.120136 1.13745 54 44 35
0.583772 0.11692 1.11129 60 50 40
0.588856 0.113839 1.0862 51 45 31
0.600245 0.1124 1.07273 57 50 40
0.604827 0.109451 1.04877 61 48 31
0.609414 0.106638 1.02588 55 40 35
0.610951 0.103273 0.999258 53 44 29
0.60295 0.0979838 0.959441 56 46 44
0.599053 0.0937892 0.927388 62 48 48
0.600247 0.0908276 0.90399 64 32 21
0.575248 0.0826416 0.844816 135 121 95
0.579531 0.0806358 0.828294 150 129 108
0.586207 0.0791785 0.815598 148 131 113
-0.783943 0.194077 1.79782 98 74 48
-0.756096 0.192552 1.78162 117 96 77
-0.728886 0.191172 1.76658 127 96 78
-0.70195 0.189792 1.75159 124 94 84
-0.681482 0.191355 1.75881 123 86 78
-0.65778 0.191446 1.75492 120 89 86
-0.634078 0.191538 1.75103 124 94 86
-0.610376 0.191629 1.74714 117 87 87
-0.586674 0.191721 1.74325 118 96 83
-0.562972 0.191812 1.73936 131 92 93
-0.53927 0.191904 1.73547 113 83 72
-0.515568 0.191995 1.73158 122 89 84
-0.493871 0.193563 1.73859 127 96 78
-0.470033 0.193655 1.73468 128 95 86
-0.444462 0.19227 1.71991 128 93 91
-0.422355 0.193839 1.72685 133 99 90
-0.400121 0.195558 1.73483 133 100 81
-0.374678 0.194023 1.71903 123 99 89
-0.350839 0.194115 1.71512 132 103 87
-0.327001 0.194207 1.7112 131 100 79
-0.304165 0.195928 1.71908 127 99 87
-0.279324 0.194391 1.70338 122 92 82
-0.256188 0.196113 1.71121 131 104 83
-0.231646 0.194575 1.69556 134 103 100
-0.20821 0.196299 1.70334 131 107 83
-0.18445 0.197875 1.71001 133 100 95
-0.160232 0.196484 1.69546 128 102 75
-0.136243 0.196576 1.69153 117 94 80
-0.112254 0.196669 1.68759 126 95 75
-0.0882653 0.196761 1.68365 122 94 73
-0.0642764 0.196854 1.67972 123 90 83
-0.0402875 0.196946 1.67578 120 89 71
-0.0162986 0.197039 1.67184 115 83 68
0.00855425 0.198619 1.67834 118 83 63
0.0326797 0.198712 1.67438 38 21 13
0.055668 0.197317 1.66003 31 24 16
0.0796569 0.197409 1.6561 34 16 12
0.105056 0.198992 1.6625 114 91 83
0.127635 0.197594 1.64822 71 59 33
0.149772 0.196047 1.63296 49 35 22
0.16997 0.193156 1.60851 62 49 40
0.193535 0.193247 1.60464 51 31 22
0.221287 0.196323 1.62123 74 46 35
0.245126 0.196415 1.61731 73 55 17
0.271568 0.19815 1.6246 82 63 49
0.300564 0.201231 1.64099 102 77 70
0.324826 0.201324 1.63701 105 79 64
0.349088 0.201418 1.63302 106 82 70
0.37335 0.201511 1.62904 109 82 71
0.397612 0.201605 1.62506 114 84 84
0.425379 0.203345 1.63213 105 79 56
0.449792 0.203439 1.62813 102 75 68
0.470398 0.201886 1.61312 110 81 73
0.494661 0.20198 1.60914 101 79 68
0.518923 0.202073 1.60515 99 72 55
0.543185 0.202167 1.60117 93 64 60
0.567447 0.20226 1.59719 99 71 67
0.587566 0.200854 1.58332 91 66 61
0.611692 0.200947 1.57936 91 65 52
0.635817 0.20104 1.5754 82 60 47
0.659943 0.201133 1.57144 69 48 43
0.684068 0.201226 1.56748 61 42 35
0.69806 0.198163 1.54299 32 20 20
0.615705 0.166077 1.33028 34 25 16
0.621323 0.161645 1.29765 31 31 23
0.618792 0.155104 1.25155 48 34 31
0.575842 0.13757 1.13492 50 42 31
0.577621 0.133123 1.10291 58 48 38
0.586485 0.130782 1.08454 53 45 42
0.594333 0.128289 1.06528 61 43 39
0.602308 0.125944 1.04706 63 42 41
0.606819 0.122844 1.02412 57 45 33
0.611375 0.119893 1.00223 62 42 53
0.612853 0.116336 0.976619 54 44 43
0.607857 0.111418 0.942555 66 46 45
0.600639 0.106195 0.90674 49 34 37
0.593813 0.101269 0.872976 120 102 98
0.579897 0.0949809 0.830862 144 132 94
0.583765 0.0927691 0.81437 158 136 115
-0.779328 0.216232 1.78979 44 41 24
-0.748481 0.21311 1.76353 66 48 44
-0.724916 0.2132 1.75967 109 83 60
-0.69812 0.211683 1.74467 116 101 62
-0.671906 0.210326 1.73083 122 82 82
-0.6486 0.210416 1.72701 118 91 74
-0.627833 0.211954 1.73314 125 88 80
-0.604405 0.212045 1.72929 112 89 73
-0.578683 0.210685 1.71554 121 97 71
-0.557547 0.212226 1.7216 130 103 84
-0.532071 0.210865 1.70789 123 88 68
-0.510689 0.212406 1.71391 120 92 81
-0.487261 0.212497 1.71007 129 100 82
-0.463832 0.212587 1.70622 123 96 85
-0.440403 0.212678 1.70238 134 98 82
-0.418566 0.214383 1.70939 123 94 86
-0.395 0.214473 1.70553 130 101 83
-0.372753 0.21618 1.71247 131 102 94
-0.34787 0.214655 1.69779 132 101 80
-0.324304 0.214746 1.69392 127 100 79
-0.300739 0.214837 1.69006 115 89 74
-0.276402 0.21331 1.67547 136 103 84
-0.253608 0.215019 1.68232 124 95 77
-0.230541 0.216729 1.68913 137 102 80
-0.206839 0.21682 1.68524 141 106 100
-0.183137 0.216912 1.68135 133 101 86
-0.159346 0.215383 1.66685 129 100 92
-0.135733 0.217095 1.67357 135 103 88
-0.112216 0.215565 1.65912 123 92 74
-0.0883292 0.217277 1.66579 126 99 82
-0.0646272 0.217369 1.66191 124 97 78
-0.0415194 0.215837 1.64752 120 88 75
-0.017954 0.215928 1.64365 126 100 83
0.00561135 0.216019 1.63978 37 26 24
0.0291768 0.21611 1.63592 22 20 21
0.0538829 0.217826 1.64246 60 46 37
0.0775849 0.217918 1.63857 120 91 73
0.102701 0.219635 1.64504 128 91 75
0.124989 0.218101 1.63079 100 74 61
0.148691 0.218192 1.6269 57 44 28
0.168745 0.215028 1.60242 49 42 32
0.192174 0.215118 1.59857 58 41 23
0.2177 0.216838 1.60498 118 79 46
0.241265 0.216929 1.60111 147 105 57
0.262461 0.21539 1.58704 118 81 55
0.288396 0.21711 1.59338 102 74 63
0.317248 0.220463 1.60983 104 80 68
0.341087 0.220555 1.60592 114 81 72
0.368134 0.222442 1.61314 110 81 67
0.388764 0.220739 1.5981 115 93 69
0.419302 0.22426 1.61534 114 90 78
0.440101 0.22272 1.60133 106 82 70
0.46409 0.222812 1.59739 112 85 76
0.484119 0.221107 1.58245 107 78 62
0.507957 0.221199 1.57854 101 66 62
0.531796 0.221291 1.57462 106 83 67
0.555635 0.221383 1.57071 108 82 65
0.575327 0.219838 1.55689 89 64 59
