ply
format ascii 1.0
element vertex 1266
property float x
property float y
property float z
property uchar red
property uchar green
property uchar blue
end_header
0.255633 -1.0897 1.7279 170 148 137
0.284269 -1.08943 1.72289 169 153 140
0.312904 -1.08915 1.71788 157 139 127
0.345022 -1.09619 1.72633 161 138 132
0.373862 -1.09591 1.72128 167 149 135
0.402701 -1.09564 1.71623 168 144 132
0.435637 -1.10267 1.72454 158 136 125
0.464682 -1.10239 1.71946 169 147 134
0.512346 -1.13229 1.7693 150 126 114
0.547259 -1.13979 1.7782 115 93 79
0.572126 -1.13171 1.75883 132 106 89
0.607475 -1.13921 1.76766 137 110 93
0.631906 -1.13114 1.74836 135 112 81
0.667692 -1.13863 1.75711 135 107 83
0.691685 -1.13057 1.7379 142 119 87
0.721575 -1.13028 1.73266 137 112 92
0.758016 -1.13776 1.7413 144 116 104
0.781355 -1.12971 1.7222 134 108 85
0.818232 -1.13719 1.73076 143 115 91
0.84834 -1.1369 1.72549 139 113 96
0.878448 -1.13661 1.72021 130 109 82
0.908556 -1.13632 1.71494 135 107 93
0.938664 -1.13603 1.70967 134 106 85
0.968772 -1.13574 1.7044 135 108 99
0.99888 -1.13545 1.69913 134 110 84
1.02899 -1.13517 1.69386 134 117 91
1.0591 -1.13488 1.68859 127 110 84
1.09815 -1.14234 1.69676 125 106 76
1.12848 -1.14205 1.69145 127 105 81
1.15881 -1.14175 1.68614 133 108 88
1.18913 -1.14146 1.68083 126 105 86
1.21946 -1.14117 1.67553 126 105 78
1.24979 -1.14088 1.67022 121 94 83
1.28011 -1.14059 1.66491 121 98 82
1.32157 -1.14852 1.6736 123 108 87
1.35213 -1.14822 1.66825 126 96 86
1.37109 -1.13972 1.64898 111 94 74
1.4369 -1.16406 1.68532 126 100 67
-0.857831 -0.994247 1.77502 187 171 158
-0.836019 -1.00023 1.78344 179 165 162
-0.800923 -0.987988 1.75377 172 159 151
-0.782839 -0.999716 1.77413 177 164 155
-0.756249 -0.999461 1.76947 174 161 155
-0.729659 -0.999206 1.76482 168 156 144
-0.706497 -1.0047 1.77206 181 162 156
-0.679743 -1.00444 1.76737 185 165 158
-0.65299 -1.00418 1.76269 173 156 148
-0.629418 -1.01015 1.7708 179 164 157
-0.599483 -1.00367 1.75332 184 174 164
-0.575557 -1.00963 1.76137 177 162 155
-0.551276 -1.01558 1.76935 172 157 150
-0.524168 -1.01532 1.7646 182 161 158
-0.499532 -1.02175 1.77347 170 160 150
-0.472233 -1.02149 1.76869 167 154 148
-0.446876 -1.02744 1.77648 185 170 163
-0.419399 -1.02717 1.77167 181 161 162
-0.391923 -1.02691 1.76686 177 160 150
-0.364447 -1.02665 1.76205 181 164 157
-0.33697 -1.02638 1.75724 180 162 158
-0.31063 -1.03279 1.7658 175 156 152
-0.282963 -1.03253 1.76096 189 166 158
-0.25605 -1.03894 1.76942 172 152 141
-0.228192 -1.03867 1.76455 180 161 155
-0.200334 -1.0384 1.75967 180 163 153
-0.172657 -1.0448 1.768 171 151 142
-0.144608 -1.04453 1.76309 178 161 153
-0.116759 -1.0376 1.74504 170 155 152
-0.0889013 -1.03733 1.74016 169 152 144
-0.0604613 -1.04372 1.74835 182 163 156
-0.0324122 -1.04345 1.74344 165 140 135
-0.0024357 -1.0565 1.76455 175 158 148
0.0259951 -1.05622 1.75957 175 160 141
0.054426 -1.05595 1.75459 175 156 149
0.084503 -1.0628 1.76344 172 155 145
0.111288 -1.05541 1.74464 160 142 132
0.141774 -1.06225 1.75342 172 153 146
0.170409 -1.06198 1.7484 170 151 144
0.19658 -1.05459 1.7297 168 148 141
0.22768 -1.06143 1.73838 163 144 137
0.259189 -1.06827 1.74698 162 145 138
0.291107 -1.0751 1.7555 166 152 141
0.316869 -1.06772 1.73688 154 141 125
0.349195 -1.07455 1.74533 154 136 122
0.37824 -1.07427 1.74025 161 144 136
0.407284 -1.07399 1.73516 164 142 131
0.436329 -1.07371 1.73008 157 139 129
0.469678 -1.08053 1.73836 169 146 140
0.517868 -1.11006 1.78921 154 132 111
0.558348 -1.12538 1.81318 111 88 70
0.578084 -1.10948 1.77867 137 109 98
0.608192 -1.10919 1.7734 139 113 80
0.6383 -1.1089 1.76813 138 112 87
0.668409 -1.10862 1.76285 136 120 94
0.698517 -1.10833 1.75758 146 116 92
0.728625 -1.10804 1.75231 140 113 94
0.758733 -1.10775 1.74704 142 114 102
0.788841 -1.10746 1.74177 138 109 93
0.825941 -1.11472 1.75033 141 117 89
0.856267 -1.11443 1.74502 131 109 88
0.886593 -1.11414 1.73971 137 110 89
0.91692 -1.11385 1.7344 128 104 94
0.939381 -1.10602 1.71541 133 111 88
0.969489 -1.10573 1.71014 124 105 72
1.0079 -1.11298 1.71847 132 111 92
1.03822 -1.11269 1.71316 131 104 87
1.06855 -1.11239 1.70785 131 106 86
1.10839 -1.1201 1.71688 126 104 91
1.1292 -1.11181 1.69724 129 108 89
1.15953 -1.11152 1.69193 133 111 88
1.20007 -1.11923 1.70083 135 99 75
1.22018 -1.11094 1.68131 124 104 79
1.26118 -1.11864 1.69013 123 102 81
1.29174 -1.11835 1.68478 125 105 81
1.3223 -1.11805 1.67943 127 101 88
1.36423 -1.12574 1.68809 115 105 80
1.39502 -1.12545 1.68269 131 103 89
1.43764 -1.13313 1.69123 115 87 83
-0.861975 -0.973973 1.79316 161 143 141
-0.835386 -0.973718 1.78851 157 142 135
-0.808795 -0.973463 1.78385 156 139 131
-0.782205 -0.973208 1.7792 153 143 133
-0.759367 -0.978538 1.78653 158 141 134
-0.732614 -0.978282 1.78184 156 144 132
-0.70957 -0.984073 1.79008 158 139 141
-0.679106 -0.977769 1.77247 160 147 141
-0.652353 -0.977512 1.76779 159 147 149
-0.631955 -0.98934 1.78876 158 136 138
-0.604847 -0.98908 1.78401 159 145 132
-0.580779 -0.995324 1.79301 153 146 130
-0.55348 -0.995062 1.78823 157 141 128
-0.526181 -0.9948 1.78345 162 148 139
-0.501174 -1.00057 1.79134 161 143 133
-0.473698 -1.00031 1.78653 153 135 133
-0.446221 -1.00004 1.78172 164 149 142
-0.418745 -0.999781 1.77691 158 146 134
-0.392973 -1.00601 1.78561 169 150 143
-0.365306 -1.00574 1.78077 173 153 152
-0.337639 -1.00548 1.77592 170 152 150
-0.309971 -1.00521 1.77108 163 150 141
-0.282304 -1.00495 1.76623 177 158 152
-0.255387 -1.01116 1.77473 172 155 147
-0.228646 -1.02386 1.79648 168 147 146
-0.200406 -1.02358 1.79153 175 158 151
-0.172167 -1.02331 1.78659 163 145 135
-0.14394 -1.01657 1.76843 169 152 145
-0.115687 -1.02277 1.7767 173 156 148
-0.0874467 -1.0225 1.77176 166 150 137
-0.0592068 -1.02223 1.76681 173 157 144
-0.0317442 -1.01549 1.74879 158 141 131
-0.000721187 -1.03508 1.78394 172 155 147
0.0279142 -1.03481 1.77893 168 151 141
0.0565496 -1.03453 1.77392 167 149 135
0.0851849 -1.03426 1.7689 178 154 150
0.115676 -1.0409 1.77772 152 142 130
0.142456 -1.03371 1.75887 167 151 135
0.171091 -1.03343 1.75386 167 149 135
0.202196 -1.04007 1.76257 165 148 138
0.231036 -1.03979 1.75752 155 139 124
0.262754 -1.04643 1.76613 163 144 127
0.291798 -1.04615 1.76104 163 147 147
0.32413 -1.05277 1.76954 158 138 127
0.349887 -1.04559 1.75087 155 137 125
0.378932 -1.04531 1.74579 175 153 142
0.415778 -1.05883 1.76765 162 144 134
0.445232 -1.05855 1.76249 162 140 126
0.474685 -1.05827 1.75733 167 147 138
0.528517 -1.09521 1.82436 156 129 118
0.559075 -1.09492 1.81901 111 88 74
0.578801 -1.07947 1.78441 130 113 85
0.608909 -1.07918 1.77914 140 114 99
0.644706 -1.08623 1.78797 138 116 92
0.681308 -1.09374 1.79761 140 114 91
0.705358 -1.08565 1.77735 132 106 91
0.729342 -1.07802 1.75805 138 114 90
0.766011 -1.08507 1.76673 136 113 95
0.796337 -1.08478 1.76142 136 115 94
0.834098 -1.09228 1.77085 128 114 87
0.856989 -1.0842 1.7508 125 105 81
0.895214 -1.09169 1.76015 128 112 78
0.925772 -1.0914 1.7548 127 107 83
0.947968 -1.08333 1.73487 129 106 75
0.978294 -1.08303 1.72956 131 103 91
1.00862 -1.08274 1.72425 129 101 89
1.03895 -1.08245 1.71895 120 103 83
1.06927 -1.08216 1.71364 126 110 87
1.10912 -1.08964 1.7227 129 106 92
1.13968 -1.08935 1.71735 126 104 81
1.17024 -1.08905 1.712 121 104 76
1.20079 -1.08876 1.70665 119 97 76
1.23135 -1.08847 1.7013 121 101 77
1.26191 -1.08818 1.69595 124 108 75
1.29247 -1.08788 1.6906 126 103 85
1.32303 -1.08759 1.68525 121 102 70
1.36496 -1.09505 1.69395 123 100 82
1.39575 -1.09475 1.68856 122 97 75
1.43838 -1.10221 1.69715 110 94 69
-0.861342 -0.947465 1.79823 128 112 89
-0.834752 -0.94721 1.79358 137 108 110
-0.808162 -0.946955 1.78892 127 121 107
-0.789721 -0.958 1.80936 130 109 108
-0.76279 -0.957741 1.80464 134 115 108
-0.743924 -0.96968 1.82689 128 110 96
-0.712634 -0.963096 1.80816 132 107 100
-0.685526 -0.962836 1.80342 135 118 100
-0.662026 -0.968894 1.81255 133 112 95
-0.634727 -0.968632 1.80777 126 108 96
-0.610425 -0.974235 1.81582 121 112 97
-0.582949 -0.973971 1.81101 138 110 109
-0.555472 -0.973707 1.8062 126 104 91
-0.527996 -0.973444 1.80139 133 120 101
-0.505446 -0.985796 1.82394 136 119 111
-0.477588 -0.985528 1.81906 129 111 97
-0.44973 -0.985261 1.81419 130 113 95
-0.421872 -0.984994 1.80931 139 124 105
-0.395714 -0.991027 1.81798 132 114 100
-0.367665 -0.990758 1.81307 134 118 103
-0.339616 -0.990489 1.80816 139 118 117
-0.311567 -0.99022 1.80325 132 113 99
-0.284454 -0.996244 1.81175 134 116 106
-0.256959 -1.00226 1.82019 132 116 93
-0.228528 -1.00199 1.81521 135 113 102
-0.200097 -1.00172 1.81023 130 116 105
-0.171667 -1.00145 1.80525 124 105 98
-0.143216 -1.00791 1.81447 130 118 104
-0.114581 -1.00763 1.80946 137 120 113
-0.0859454 -1.00736 1.80444 136 117 102
-0.05731 -1.00708 1.79943 138 119 105
-0.0286746 -1.00681 1.79441 124 108 93
0.00100309 -1.01326 1.80342 128 111 95
0.0310899 -1.0197 1.81234 130 118 96
0.0601343 -1.01942 1.80726 124 112 96
0.0891788 -1.01914 1.80217 130 119 99
0.118223 -1.01886 1.79709 129 103 88
0.147268 -1.01859 1.792 132 111 106
0.178582 -1.02502 1.80072 126 108 98
0.207831 -1.02474 1.7956 133 113 106
0.234401 -1.01775 1.77675 121 103 89
0.269212 -1.03088 1.79905 128 110 100
0.301959 -1.03775 1.80846 129 113 100
0.331631 -1.03747 1.80326 130 111 96
0.361302 -1.03718 1.79807 125 105 96
0.390974 -1.0369 1.79287 128 109 95
0.420646 -1.03661 1.78768 134 111 105
0.454702 -1.04347 1.79686 138 114 102
0.484592 -1.04318 1.79162 141 122 107
0.514482 -1.04289 1.78639 135 114 95
0.554449 -1.05687 1.80968 136 109 100
0.584776 -1.05658 1.80437 147 123 99
0.620919 -1.06387 1.81413 134 108 91
0.651477 -1.06357 1.80878 135 113 89
0.682035 -1.06328 1.80343 138 111 90
0.712593 -1.06299 1.79808 137 121 98
0.743151 -1.06269 1.79273 143 106 98
0.766733 -1.05484 1.77251 132 112 87
0.804268 -1.06211 1.78203 135 114 87
0.849706 -1.07693 1.80625 131 104 85
0.865384 -1.06152 1.77133 136 115 94
0.903845 -1.06878 1.78069 126 106 82
0.9265 -1.06094 1.76063 134 108 91
0.965425 -1.06819 1.7699 126 104 81
0.996215 -1.0679 1.76451 130 105 85
1.01817 -1.06006 1.74458 121 96 76
1.04873 -1.05976 1.73923 128 106 93
1.07929 -1.05947 1.73388 118 102 79
1.11937 -1.06672 1.74295 120 99 82
1.15992 -1.07396 1.75194 129 107 84
1.18095 -1.06613 1.73217 123 102 85
1.21174 -1.06583 1.72678 129 105 81
1.24253 -1.06554 1.72139 123 101 90
1.28401 -1.07277 1.73022 128 100 86
1.31503 -1.07247 1.72478 118 100 80
1.34605 -1.07217 1.71935 116 98 84
1.36569 -1.06435 1.69982 121 101 66
1.4081 -1.07158 1.70849 100 83 67
1.4635 -1.08676 1.73191 131 94 85
-0.874637 -0.937631 1.84181 142 118 108
-0.847529 -0.937371 1.83706 132 122 95
-0.825171 -0.94325 1.84643 142 116 101
-0.797872 -0.942989 1.84165 136 111 107
-0.774629 -0.948424 1.84992 139 115 105
-0.747152 -0.948161 1.84511 141 123 103
-0.723662 -0.954029 1.85429 140 120 113
-0.695995 -0.953764 1.84944 142 120 97
-0.668327 -0.953498 1.8446 142 115 104
-0.647487 -0.965486 1.86752 136 116 107
-0.616215 -0.959092 1.84876 140 117 109
-0.591389 -0.964948 1.8577 144 126 104
-0.56334 -0.964679 1.85279 141 123 103
-0.532641 -0.958291 1.83413 146 124 111
-0.509701 -0.970258 1.85669 145 123 112
-0.483729 -0.976103 1.86543 138 123 102
-0.455298 -0.97583 1.86045 136 114 103
-0.424981 -0.969446 1.84186 145 122 106
-0.396741 -0.969175 1.83691 150 121 105
-0.370005 -0.975012 1.84552 139 120 106
-0.341575 -0.974739 1.84054 143 124 110
-0.313144 -0.974467 1.83556 138 120 100
-0.284713 -0.974194 1.83058 146 125 108
-0.257869 -0.986995 1.85436 145 125 101
-0.229029 -0.986718 1.84931 151 119 104
-0.200189 -0.986441 1.84426 149 124 104
-0.17153 -0.992696 1.85348 144 116 104
-0.142485 -0.992417 1.84839 142 122 98
-0.113212 -0.998665 1.8575 141 124 106
-0.0839627 -0.998385 1.85238 139 121 97
-0.0547137 -0.998104 1.84726 142 120 107
-0.0254647 -0.997824 1.84214 136 115 98
0.00483149 -1.00406 1.85107 136 114 100
0.034285 -1.00378 1.84592 143 120 104
0.0652919 -1.01045 1.85567 141 122 105
0.0931921 -1.00321 1.8356 143 117 104
0.124635 -1.00988 1.84528 134 115 100
0.154307 -1.00959 1.84009 135 106 92
0.183979 -1.00931 1.83489 141 119 98
0.21365 -1.00902 1.8297 136 115 98
0.243322 -1.00874 1.8245 139 117 93
0.276074 -1.01539 1.83395 139 113 96
0.305964 -1.0151 1.82872 134 106 94
0.339371 -1.02175 1.83806 136 115 94
0.369479 -1.02146 1.83279 137 116 97
0.399587 -1.02117 1.82752 134 116 92
0.433867 -1.0278 1.8367 136 117 100
0.464193 -1.02751 1.83139 143 119 93
0.489911 -1.0203 1.8117 139 121 101
0.524845 -1.02693 1.82077 151 125 110
0.555172 -1.02664 1.81546 144 121 105
0.59668 -1.04104 1.84046 118 97 80
0.62747 -1.04075 1.83507 139 109 99
0.65826 -1.04045 1.82968 132 110 89
0.68905 -1.04016 1.82429 141 112 94
0.713321 -1.03252 1.80391 139 119 94
0.750629 -1.03957 1.81351 135 109 84
0.781419 -1.03927 1.80812 136 108 94
0.812209 -1.03897 1.80273 133 109 83
0.850445 -1.04601 1.81217 130 113 85
0.881466 -1.04571 1.80674 128 110 90
0.912488 -1.04541 1.80131 133 109 81
0.94351 -1.04512 1.79587 132 104 90
0.974531 -1.04482 1.79044 128 106 83
0.996948 -1.0372 1.77038 125 104 85
1.03657 -1.04422 1.77958 125 105 81
1.0676 -1.04393 1.77415 131 104 83
1.09862 -1.04363 1.76872 125 101 77
1.12964 -1.04333 1.76329 122 97 77
1.17043 -1.05034 1.77228 123 101 78
1.19168 -1.04273 1.75242 125 103 89
1.2227 -1.04244 1.74699 120 94 81
1.25373 -1.04214 1.74156 119 98 81
1.28475 -1.04184 1.73613 118 93 73
1.31577 -1.04154 1.7307 113 96 66
1.35795 -1.04854 1.73945 113 94 62
1.37781 -1.04095 1.71984 115 99 76
1.42045 -1.04794 1.7285 116 88 67
1.45171 -1.04764 1.72303 119 93 80
-0.879119 -0.916559 1.8612 140 121 106
-0.85182 -0.916297 1.85642 139 122 106
-0.833672 -0.927509 1.87894 133 109 97
-0.797222 -0.915774 1.84686 139 118 101
-0.782701 -0.932923 1.88334 142 121 102
-0.754843 -0.932656 1.87846 137 116 111
-0.730966 -0.938331 1.8876 141 119 80
-0.699126 -0.932122 1.86871 143 120 106
-0.674868 -0.937792 1.87778 142 119 105
-0.646819 -0.937523 1.87287 140 120 93
-0.621988 -0.943189 1.88185 139 119 108
-0.593748 -0.942918 1.8769 144 126 102
-0.565508 -0.942647 1.87196 145 121 111
-0.537268 -0.942376 1.86702 139 120 106
-0.511482 -0.948032 1.87583 142 121 90
-0.483052 -0.94776 1.87085 142 120 109
-0.454621 -0.947487 1.86587 139 115 105
-0.42619 -0.947214 1.86089 140 122 108
-0.399571 -0.953284 1.87051 143 117 100
-0.372542 -0.95935 1.88005 143 120 104
-0.3423 -0.952735 1.86048 143 118 98
-0.314862 -0.958797 1.86995 147 120 103
-0.286022 -0.95852 1.8649 139 116 102
-0.257971 -0.964576 1.87427 144 126 106
-0.229511 -0.970629 1.88356 143 117 100
-0.200262 -0.970348 1.87844 137 118 101
-0.171013 -0.970068 1.87332 130 109 92
-0.141764 -0.969787 1.8682 136 118 98
-0.112281 -0.975829 1.87732 135 113 99
-0.0828277 -0.975547 1.87216 139 116 100
-0.0533741 -0.975264 1.867 136 107 101
-0.0239206 -0.974982 1.86184 134 108 91
0.00665513 -0.981436 1.87172 134 112 89
0.0363268 -0.981151 1.86652 142 113 97
0.0675571 -0.987598 1.87628 139 109 98
0.0956703 -0.980582 1.85613 136 114 90
0.127337 -0.987025 1.86582 133 108 86
0.15944 -0.993464 1.87543 134 112 91
0.187117 -0.986452 1.85535 131 108 92
0.219656 -0.992886 1.86488 134 107 96
0.249764 -0.992598 1.85961 130 106 82
0.282958 -0.999026 1.86903 128 107 76
0.316794 -1.00587 1.87928 127 104 88
0.347352 -1.00558 1.87393 129 112 94
0.37791 -1.00528 1.86858 127 101 86
0.408469 -1.00499 1.86323 130 102 90
0.439027 -1.0047 1.85788 129 104 84
0.469585 -1.0044 1.85253 129 103 88
0.500143 -1.00411 1.84718 131 105 88
0.530701 -1.00382 1.84183 129 102 83
0.566624 -1.01064 1.85172 128 105 87
0.597413 -1.01035 1.84633 126 107 90
0.628203 -1.01005 1.84094 135 111 87
0.658993 -1.00976 1.83555 136 111 91
0.689783 -1.00946 1.83016 136 111 91
0.720573 -1.00917 1.82477 139 110 92
0.751363 -1.00887 1.81938 134 109 89
0.782153 -1.00858 1.81399 135 112 98
0.812942 -1.00828 1.8086 131 104 85
0.851184 -1.01508 1.81808 134 107 90
0.882205 -1.01478 1.81265 133 107 92
0.913227 -1.01449 1.80722 131 107 81
0.952395 -1.02128 1.81654 139 112 103
0.983649 -1.02098 1.81107 127 110 82
1.00629 -1.01359 1.79093 126 106 81
1.03731 -1.0133 1.78549 127 105 84
1.06834 -1.013 1.78006 124 102 81
1.09936 -1.0127 1.77463 125 102 96
1.13992 -1.01948 1.78371 122 101 84
1.17117 -1.01918 1.77824 126 103 85
1.20242 -1.01888 1.77277 112 94 72
1.23368 -1.01858 1.76729 119 97 73
1.26493 -1.01828 1.76182 116 101 80
1.28549 -1.01092 1.74204 118 89 85
1.31651 -1.01062 1.73661 121 98 84
1.35869 -1.01738 1.74541 121 99 85
1.38994 -1.01708 1.73993 115 96 82
1.4335 -1.02426 1.74944 122 92 82
1.465 -1.02395 1.74392 117 88 80
-0.888348 -0.900458 1.8939 139 127 111
-0.86068 -0.900192 1.88906 148 125 107
-0.837754 -0.905685 1.8984 146 124 103
-0.809896 -0.905418 1.89353 143 126 108
-0.786396 -0.910906 1.90277 143 124 92
-0.758347 -0.910637 1.89786 141 127 101
-0.730298 -0.910368 1.89295 145 123 110
-0.706035 -0.915849 1.90207 144 124 97
-0.677795 -0.915578 1.89712 145 127 113
-0.649555 -0.915307 1.89218 145 128 112
-0.621315 -0.915036 1.88723 145 122 104
-0.596098 -0.920507 1.89618 144 123 106
-0.567667 -0.920235 1.8912 145 118 101
-0.539236 -0.919962 1.88622 142 120 97
-0.51343 -0.925836 1.89602 149 127 106
-0.487215 -0.931706 1.90575 146 124 103
-0.458375 -0.931429 1.9007 146 126 102
-0.429535 -0.931152 1.89565 148 129 112
-0.402502 -0.937015 1.90523 143 118 98
-0.373457 -0.936736 1.90015 143 127 93
-0.344413 -0.936457 1.89506 146 120 105
-0.315368 -0.936179 1.88998 142 120 99
-0.286324 -0.9359 1.88489 145 116 110
-0.258063 -0.94175 1.89426 151 123 119
-0.229394 -0.947597 1.90356 139 121 97
-0.19994 -0.947314 1.8984 141 121 96
-0.170487 -0.947032 1.89324 138 115 101
-0.140997 -0.953278 1.90335 139 118 101
-0.111325 -0.952994 1.89816 145 119 104
-0.0821262 -0.946184 1.87777 142 124 104
-0.0526727 -0.945902 1.87262 141 119 96
-0.0232191 -0.945619 1.86746 147 125 104
0.0107439 -0.971411 1.9226 139 113 96
0.0397246 -0.964604 1.90225 143 118 111
0.0713964 -0.970829 1.91198 138 119 105
0.0999407 -0.964026 1.89171 139 114 107
0.132049 -0.970248 1.90136 137 113 101
0.162375 -0.969957 1.89605 133 110 92
0.192701 -0.969666 1.89074 134 116 96
0.223028 -0.969375 1.88543 134 113 96
0.253354 -0.969084 1.88012 136 114 91
0.286964 -0.975699 1.89046 136 117 87
0.317522 -0.975406 1.88511 130 108 95
0.34808 -0.975113 1.87976 137 112 92
0.378638 -0.97482 1.87441 128 106 85
0.409196 -0.974527 1.86906 142 115 98
0.439754 -0.974234 1.86371 133 107 90
0.474987 -0.980833 1.87376 137 112 90
0.50087 -0.973648 1.85301 137 110 91
0.536567 -0.980243 1.86298 135 110 90
0.572727 -0.986834 1.87288 130 102 98
0.603749 -0.986536 1.86745 117 99 89
0.634771 -0.986239 1.86201 125 105 80
0.665792 -0.985941 1.85658 132 107 87
0.696814 -0.985644 1.85115 133 106 87
0.727836 -0.985346 1.84572 127 109 85
0.758857 -0.985048 1.84029 131 105 88
0.789879 -0.984751 1.83486 134 113 84
0.820901 -0.984453 1.82943 137 107 83
0.859379 -0.991022 1.83891 135 107 85
0.890633 -0.990722 1.83344 125 98 77
0.921886 -0.990422 1.82797 129 106 98
0.953139 -0.990122 1.8225 131 109 85
0.99327 -0.997083 1.83265 125 109 75
1.01565 -0.989523 1.81156 130 108 84
1.0469 -0.989223 1.80608 119 102 82
1.07815 -0.988923 1.80061 129 103 88
1.10941 -0.988624 1.79514 126 103 87
1.15076 -0.995573 1.80508 117 99 79
1.18226 -0.99527 1.79956 121 102 88
1.20317 -0.987724 1.77872 115 101 72
1.24526 -0.994666 1.78853 118 99 84
1.27676 -0.994364 1.78302 113 89 79
1.29693 -0.986825 1.76231 116 91 86
1.32818 -0.986525 1.75684 99 86 69
1.37126 -0.993458 1.76647 111 96 77
1.39069 -0.985926 1.74589 117 95 84
1.43425 -0.992854 1.75544 116 96 85
1.46575 -0.992552 1.74993 112 96 63
-0.892806 -0.878448 1.91347 140 121 107
-0.864948 -0.878181 1.90859 139 121 101
-0.83709 -0.877913 1.90371 144 121 105
-0.809232 -0.877646 1.89884 142 123 109
-0.785728 -0.882944 1.90812 134 115 100
-0.761843 -0.888238 1.91734 147 121 108
-0.733603 -0.887967 1.91239 149 126 110
-0.709144 -0.893255 1.92151 151 125 112
-0.680713 -0.892982 1.91653 142 124 102
-0.652283 -0.89271 1.91155 140 122 110
-0.623852 -0.892437 1.90658 143 122 117
-0.598654 -0.898113 1.91652 150 128 105
-0.570019 -0.897838 1.91151 151 130 111
-0.544208 -0.903508 1.92134 145 127 107
-0.515368 -0.903231 1.9163 144 126 106
-0.486528 -0.902955 1.91125 141 123 101
-0.459899 -0.908617 1.92094 152 129 113
-0.430855 -0.908338 1.91585 148 125 111
-0.40181 -0.90806 1.91077 142 123 106
-0.372766 -0.907781 1.90568 144 126 104
-0.345114 -0.913433 1.9152 140 117 99
-0.315865 -0.913153 1.91008 142 123 106
-0.286616 -0.912872 1.90496 145 127 107
-0.258146 -0.918517 1.91433 143 119 107
-0.228692 -0.918234 1.90917 144 125 108
-0.199634 -0.924267 1.9194 133 114 99
-0.169962 -0.923983 1.9142 141 120 99
-0.14029 -0.923698 1.90901 136 114 100
-0.110359 -0.929723 1.91908 134 111 97
-0.0809467 -0.923129 1.89862 138 119 102
-0.0505788 -0.92915 1.90861 136 114 91
-0.0206889 -0.928863 1.90338 136 119 101
0.0114662 -0.941179 1.92838 140 114 101
0.0417924 -0.940888 1.92307 143 120 106
0.0721186 -0.940597 1.91776 132 114 92
0.102445 -0.940306 1.91245 141 114 97
0.132771 -0.940015 1.90714 139 120 103
0.163097 -0.939724 1.90183 142 120 99
0.193424 -0.939433 1.89652 135 114 93
0.22375 -0.939143 1.89121 137 115 92
0.257134 -0.945529 1.90163 136 113 97
0.290982 -0.95191 1.91198 138 108 98
0.321771 -0.951615 1.90659 140 115 95
0.352561 -0.95132 1.9012 131 105 92
0.383351 -0.951025 1.89581 138 115 101
0.414141 -0.950729 1.89042 133 111 97
0.444931 -0.950434 1.88503 130 109 92
0.475721 -0.950139 1.87963 132 109 95
0.50651 -0.949843 1.87424 131 108 92
0.5373 -0.949548 1.86885 133 108 88
0.573466 -0.955908 1.87879 114 91 85
0.593272 -0.942305 1.84278 131 117 104
0.62967 -0.948662 1.85268 125 108 90
0.648317 -0.935071 1.81688 135 118 98
0.678643 -0.93478 1.81157 135 117 93
0.722039 -0.947776 1.83651 132 111 90
0.752829 -0.947481 1.83112 127 105 92
0.790618 -0.953825 1.84077 125 108 90
0.814409 -0.94689 1.82034 129 113 90
0.860123 -0.959865 1.84487 127 111 86
0.899523 -0.966588 1.8552 127 108 93
0.92263 -0.959265 1.83393 127 106 87
0.962521 -0.965984 1.84417 131 106 86
0.99402 -0.965681 1.83866 132 102 91
1.02552 -0.965379 1.83314 131 105 90
1.04764 -0.958066 1.81204 121 105 79
1.0789 -0.957767 1.80657 126 102 76
1.12002 -0.964473 1.8166 112 94 72
1.15151 -0.964171 1.81108 121 94 83
1.18301 -0.963869 1.80557 115 89 66
1.20391 -0.956568 1.78468 94 77 69
1.20443 -0.936443 1.73578 82 70 54
1.27751 -0.962963 1.78902 92 74 62
1.29767 -0.955668 1.76827 94 75 71
1.32893 -0.955369 1.76279 112 82 74
1.36018 -0.955069 1.75732 77 64 48
1.39143 -0.954769 1.75185 80 65 58
1.41105 -0.947874 1.73215 91 74 58
1.4665 -0.96115 1.75593 109 82 73
-0.892143 -0.850676 1.91878 150 124 111
-0.864285 -0.850408 1.9139 147 128 113
-0.841158 -0.855519 1.92329 146 123 109
-0.813109 -0.85525 1.91838 145 121 111
-0.78941 -0.860356 1.92767 138 116 102
-0.765329 -0.865457 1.93689 149 130 115
-0.736898 -0.865185 1.93191 150 127 109
-0.712514 -0.870664 1.94203 144 122 111
-0.683878 -0.87039 1.93702 146 128 104
-0.658881 -0.875863 1.94704 146 124 111
-0.630041 -0.875587 1.94199 151 130 111
-0.601201 -0.87531 1.93694 141 127 118
-0.572361 -0.875034 1.93189 148 123 103
-0.543521 -0.874757 1.92684 155 131 107
-0.517296 -0.880219 1.93665 145 123 110
-0.488252 -0.879941 1.93156 145 120 113
-0.459207 -0.879662 1.92648 144 122 108
-0.432164 -0.885116 1.93614 146 128 106
-0.402915 -0.884836 1.93102 144 123 106
-0.373666 -0.884555 1.9259 148 121 110
-0.344417 -0.884275 1.92077 148 125 107
-0.315168 -0.883994 1.91565 143 122 105
-0.286898 -0.889436 1.9251 137 116 99
-0.257445 -0.889154 1.91994 143 116 107
-0.228599 -0.894972 1.93025 141 115 98
-0.199316 -0.900785 1.94048 143 125 101
-0.169598 -0.906595 1.95063 129 111 91
-0.13949 -0.906306 1.94536 124 112 96
-0.109382 -0.906017 1.94009 119 106 90
-0.0797568 -0.899639 1.91954 138 116 103
-0.0491655 -0.90544 1.92954 142 115 98
-0.0190574 -0.905151 1.92427 137 116 95
0.0133973 -0.91741 1.95026 138 115 99
0.0439553 -0.917117 1.94491 137 116 97
0.0745134 -0.916823 1.93956 135 113 89
0.105071 -0.91653 1.93421 140 118 95
0.135629 -0.916237 1.92886 135 114 93
0.166187 -0.915944 1.92351 136 110 97
0.196745 -0.915651 1.91816 142 114 103
0.227304 -0.915358 1.91281 135 112 98
0.257862 -0.915065 1.90746 138 114 104
0.29501 -0.92766 1.93359 135 114 93
0.322505 -0.92092 1.91246 132 111 94
0.357053 -0.927064 1.92272 137 116 99
0.384084 -0.92033 1.90168 131 108 92
0.419097 -0.926469 1.91186 132 113 96
0.450118 -0.926172 1.90643 125 110 79
0.485826 -0.932305 1.91649 132 110 89
0.512162 -0.925577 1.89557 133 107 92
0.538034 -0.918853 1.87472 122 106 80
0.579586 -0.931405 1.90008 108 92 76
0.588387 -0.90542 1.83328 126 112 99
0.60771 -0.893045 1.79918 113 96 86
0.626161 -0.880679 1.76524 146 138 115
0.655615 -0.880397 1.76008 157 132 112
0.679297 -0.874456 1.74154 149 132 106
0.720896 -0.885865 1.76401 145 118 99
0.75716 -0.891612 1.77302 130 89 71
0.79386 -0.897354 1.78195 132 101 83
0.830997 -0.903093 1.7908 144 123 96
0.854076 -0.896777 1.7714 141 117 107
0.884184 -0.896488 1.76613 135 113 100
0.938302 -0.915014 1.80464 131 113 91
0.977487 -0.921114 1.8141 128 112 89
1.01714 -0.927209 1.82347 128 109 94
1.03953 -0.920519 1.80324 128 110 90
1.08927 -0.933373 1.82812 116 97 82
1.13064 -0.939833 1.83815 102 85 69
1.16238 -0.939528 1.83259 103 78 71
1.16362 -0.919329 1.78151 77 60 53
1.16459 -0.899893 1.73239 81 67 56
1.19491 -0.899602 1.72708 88 79 62
1.23572 -0.905686 1.73626 83 64 60
1.27699 -0.911766 1.74534 74 72 59
1.32967 -0.924211 1.76875 56 49 41
1.34975 -0.917544 1.74892 74 66 63
1.34654 -0.898148 1.70054 72 54 50
1.35496 -0.885878 1.66835 71 58 67
1.37367 -0.879605 1.64972 83 65 63
-0.896588 -0.828095 1.93846 131 110 91
-0.868539 -0.827826 1.93355 140 122 102
-0.84049 -0.827557 1.92864 144 127 109
-0.816977 -0.832474 1.93799 141 124 104
-0.788737 -0.832203 1.93305 145 122 106
-0.769103 -0.842667 1.95752 149 124 104
-0.740467 -0.842392 1.95251 150 127 109
-0.715874 -0.847666 1.96264 142 123 109
-0.683196 -0.841843 1.94248 140 121 107
-0.661827 -0.852657 1.96761 144 126 114
-0.629354 -0.846836 1.94749 146 121 116
-0.600514 -0.846559 1.94244 141 123 99
-0.571674 -0.846283 1.93739 143 120 114
-0.545649 -0.851543 1.94727 143 120 104
-0.519215 -0.856799 1.95708 145 127 107
-0.48756 -0.850986 1.9371 150 127 111
-0.460717 -0.856238 1.94683 145 117 103
-0.431468 -0.855957 1.94171 149 127 106
-0.402219 -0.855677 1.93659 151 126 106
-0.374557 -0.860921 1.94619 146 124 103
-0.345104 -0.860639 1.94103 144 124 100
-0.316907 -0.866245 1.95149 146 125 104
-0.287235 -0.865961 1.9463 143 118 98
-0.258384 -0.871561 1.95664 146 125 104
-0.229097 -0.877157 1.96691 143 121 107
-0.198604 -0.870988 1.94618 141 119 108
-0.139655 -0.776757 1.69045 68 58 57
-0.108394 -0.881877 1.96118 95 82 73
-0.0785565 -0.875713 1.94056 130 111 96
-0.0477418 -0.881295 1.95056 132 114 94
-0.0174156 -0.881004 1.94525 137 114 98
0.014125 -0.886946 1.95609 139 119 95
0.0446831 -0.886653 1.95074 141 115 92
0.0752411 -0.88636 1.94539 142 117 95
0.107709 -0.892293 1.95606 138 118 94
0.138499 -0.891997 1.95067 140 115 95
0.166915 -0.88548 1.92934 139 113 96
0.200079 -0.891407 1.93989 138 112 99
0.233705 -0.897329 1.95036 132 109 93
0.261658 -0.890816 1.92911 129 110 80
0.295749 -0.896734 1.9395 133 111 100
0.32677 -0.896436 1.93407 133 106 99
0.357792 -0.896138 1.92864 131 112 98
0.39281 -0.902047 1.93887 129 106 90
0.424063 -0.901747 1.9334 135 110 90
0.455317 -0.901447 1.92792 132 104 100
0.491538 -0.907712 1.93891 124 104 79
0.517824 -0.900848 1.91698 121 99 85
0.554536 -0.907107 1.92788 113 96 76
0.574944 -0.894056 1.89062 123 110 94
0.583821 -0.869361 1.82459 136 119 101
0.592247 -0.846139 1.76248 156 138 114
0.616129 -0.8404 1.74386 160 139 110
0.639602 -0.834665 1.72532 155 148 120
0.668442 -0.834389 1.72027 155 139 116
0.691302 -0.82866 1.70183 150 125 105
0.726122 -0.833836 1.71017 135 107 83
0.767741 -0.844456 1.73175 151 130 109
0.817651 -0.861241 1.76825 145 127 105
0.84029 -0.855147 1.74889 146 125 106
0.855488 -0.843614 1.71639 139 122 94
0.884737 -0.843334 1.71127 141 116 109
0.906574 -0.837615 1.69301 146 127 97
0.943235 -0.842773 1.70103 136 115 94
0.964663 -0.837058 1.68284 112 91 74
0.985681 -0.831346 1.66473 113 90 72
1.01452 -0.83107 1.65968 105 81 69
1.08666 -0.858661 1.72115 100 77 71
1.11655 -0.858374 1.71592 88 71 63
1.13701 -0.852301 1.69694 90 77 69
1.16668 -0.852016 1.69174 75 58 51
1.21609 -0.863297 1.71389 53 50 41
1.20648 -0.840248 1.65494 79 63 63
1.27631 -0.862719 1.70334 73 65 54
1.29589 -0.856654 1.68452 84 69 62
1.31504 -0.850594 1.66577 78 71 55
1.33375 -0.844537 1.64709 86 69 61
1.34224 -0.833436 1.61673 81 63 59
-0.901025 -0.805133 1.95821 145 122 106
-0.867871 -0.799863 1.93889 138 113 91
-0.844545 -0.804592 1.94832 137 118 85
-0.820836 -0.809316 1.95768 146 124 111
-0.792405 -0.809044 1.9527 138 120 98
-0.772867 -0.819468 1.97823 145 123 102
-0.744027 -0.819191 1.97318 143 122 105
-0.715187 -0.818915 1.96813 144 125 110
-0.69018 -0.823981 1.97823 147 120 103
-0.661135 -0.823702 1.97315 148 124 114
-0.632091 -0.823424 1.96806 143 119 109
-0.603046 -0.823145 1.96298 145 121 111
-0.574002 -0.822867 1.95789 144 123 106
-0.544957 -0.822588 1.95281 141 123 101
-0.518518 -0.82764 1.96265 148 127 108
-0.489269 -0.82736 1.95753 142 123 106
-0.462216 -0.832406 1.96727 149 123 110
-0.434887 -0.837804 1.97793 143 123 99
-0.403309 -0.831841 1.95696 141 120 101
-0.375544 -0.837234 1.96754 139 118 101
-0.345872 -0.83695 1.96234 136 112 100
-0.3162 -0.836665 1.95715 141 120 101
-0.287562 -0.84205 1.96757 138 120 96
-0.258488 -0.847431 1.97792 138 115 101
-0.22838 -0.847142 1.97265 138 115 99
-0.198272 -0.846853 1.96738 139 120 90
-0.165318 -0.746434 1.68851 23 22 17
-0.139026 -0.750426 1.69548 24 20 21
-0.107672 -0.851644 1.96696 82 69 60
-0.0773458 -0.851353 1.96165 133 116 90
-0.0470196 -0.851062 1.95634 137 118 101
-0.0166934 -0.850771 1.95103 135 113 92
0.0160727 -0.862484 1.9781 138 112 97
0.0468626 -0.862188 1.97271 133 112 93
0.079336 -0.86789 1.98343 139 117 96
0.110358 -0.867593 1.978 131 110 89
0.143526 -0.873288 1.9886 139 114 94
0.172401 -0.866998 1.96714 131 110 89
0.206033 -0.872689 1.97766 135 112 94
0.234444 -0.866403 1.95628 135 113 100
0.265466 -0.866105 1.95085 133 109 99
0.299794 -0.871789 1.96124 129 105 93
0.334793 -0.877821 1.97248 134 111 95
0.366292 -0.877518 1.96697 134 111 95
0.393554 -0.87089 1.94483 123 104 87
0.42929 -0.876914 1.95594 129 104 84
0.460789 -0.876612 1.95042 129 102 83
0.492288 -0.87631 1.94491 124 101 85
0.523787 -0.876008 1.93939 114 91 77
0.555286 -0.875706 1.93388 113 87 72
0.586785 -0.875404 1.92837 91 79 67
0.573951 -0.828128 1.8013 119 100 83
0.587776 -0.811724 1.75448 161 147 112
0.606077 -0.800937 1.72233 167 143 119
0.629137 -0.79541 1.70382 167 128 123
0.657567 -0.795137 1.69884 162 141 122
0.680412 -0.789966 1.68133 156 134 110
0.697097 -0.779902 1.65139 149 132 106
0.724956 -0.779634 1.64651 153 136 110
0.771291 -0.794046 1.67893 151 136 105
0.813329 -0.804255 1.70052 148 134 107
0.849177 -0.809217 1.70872 130 121 92
0.871008 -0.803702 1.69042 136 122 87
0.907266 -0.80866 1.69855 149 128 107
0.928688 -0.803149 1.68032 139 113 96
0.949702 -0.797641 1.66217 135 95 85
0.970307 -0.792138 1.64408 152 119 100
0.998737 -0.791865 1.63911 147 122 92
1.01929 -0.786716 1.622 139 120 87
1.03946 -0.78157 1.60495 114 102 80
1.06751 -0.781301 1.60004 103 85 75
1.14867 -0.81165 1.67076 47 39 37
1.15941 -0.800936 1.63993 78 66 54
1.18825 -0.800659 1.63488 93 76 66
1.20742 -0.795169 1.61705 76 63 54
1.26567 -0.810528 1.65027 89 74 67
1.27477 -0.799829 1.61973 87 75 61
1.29333 -0.794345 1.602 81 70 52
1.34293 -0.804481 1.62227 84 67 57
-0.905452 -0.781791 1.97803 139 121 99
-0.877021 -0.781519 1.97306 133 117 101
-0.853645 -0.786396 1.98348 142 116 101
-0.82501 -0.786122 1.97847 141 122 105
-0.796374 -0.785847 1.97345 143 127 112
-0.77218 -0.790717 1.98373 140 120 109
-0.747577 -0.795583 1.99394 141 121 97
-0.718532 -0.795305 1.98885 136 115 94
-0.689488 -0.795026 1.98377 132 116 100
-0.660443 -0.794748 1.97868 139 115 103
-0.634818 -0.799604 1.98871 140 118 97
-0.602355 -0.79419 1.96851 139 120 103
-0.57632 -0.799043 1.97847 139 118 101
-0.549875 -0.803891 1.98836 139 115 103
-0.520422 -0.803609 1.9832 147 120 99
-0.493524 -0.808793 1.99397 141 123 103
-0.463852 -0.808508 1.98878 145 119 102
-0.4363 -0.813686 1.99944 137 116 95
-0.404509 -0.807939 1.97839 141 120 101
-0.37652 -0.813113 1.98897 139 118 97
-0.34663 -0.812826 1.98374 141 118 104
-0.31674 -0.812539 1.9785 137 114 98
-0.287879 -0.817704 1.98893 135 116 99
-0.258581 -0.822866 1.99929 136 114 101
-0.228255 -0.822575 1.99398 140 117 103
-0.197929 -0.822284 1.98867 141 118 104
-0.164693 -0.720266 1.69351 27 20 14
-0.138299 -0.732597 1.72469 20 15 19
-0.106353 -0.83297 2.00554 74 61 45
-0.0760936 -0.826898 1.98379 134 111 95
-0.0440119 -0.838155 2.01107 134 117 89
-0.0139839 -0.832084 1.98936 137 119 97
0.0180314 -0.837559 2.00021 134 112 91
0.0490531 -0.837262 1.99478 134 118 95
0.0817638 -0.84273 2.0055 136 114 93
0.113017 -0.842431 2.00003 132 113 96
0.144271 -0.842131 1.99456 137 111 96
0.175524 -0.841831 1.98909 139 116 98
0.206778 -0.841531 1.98362 134 106 94
0.238031 -0.841232 1.97814 131 105 88
0.269285 -0.840932 1.97267 132 110 89
0.304045 -0.846721 1.984 124 106 84
0.335544 -0.846419 1.97849 125 104 83
0.37104 -0.852201 1.98969 127 105 91
0.398541 -0.845815 1.96746 118 100 86
0.43004 -0.845513 1.96194 120 101 87
0.461539 -0.84521 1.95643 123 97 82
0.498017 -0.850983 1.96746 112 92 85
0.524537 -0.844606 1.9454 108 95 78
0.561506 -0.850374 1.95635 113 90 76
0.598966 -0.856137 1.96721 88 63 56
0.624995 -0.849765 1.94523 111 83 71
0.578124 -0.772664 1.7328 157 131 118
0.591347 -0.757912 1.68888 169 108 123
0.608977 -0.748219 1.65869 159 103 102
0.636645 -0.747954 1.65385 165 138 108
0.664312 -0.747688 1.64901 160 136 124
0.686197 -0.742717 1.63163 157 138 108
0.702155 -0.73338 1.6027 170 149 122
0.735427 -0.737823 1.61043 160 141 124
0.756371 -0.73286 1.59321 116 99 83
0.790025 -0.737299 1.60087 96 81 76
0.837052 -0.750794 1.63231 139 127 103
0.86491 -0.750526 1.62743 154 134 110
0.899886 -0.754953 1.63486 149 132 102
0.927935 -0.754684 1.62995 148 131 105
0.948484 -0.749725 1.6128 140 122 98
0.968651 -0.74477 1.59572 152 133 116
1.0042 -0.74919 1.60305 159 139 114
1.02399 -0.744239 1.58603 149 116 109
1.04339 -0.739291 1.56909 130 75 81
1.07087 -0.739027 1.56428 109 79 79
1.11563 -0.748122 1.58354 100 82 68
1.15233 -0.752532 1.59066 83 68 65
1.16232 -0.742912 1.56181 81 69 57
1.20843 -0.751994 1.58084 74 58 43
1.24588 -0.756396 1.58783 100 81 85
1.26452 -0.751455 1.57102 91 81 56
1.30236 -0.755854 1.57794 102 90 64
-0.904775 -0.753448 1.98345 138 113 108
-0.881598 -0.758124 1.99395 137 116 99
-0.852963 -0.757849 1.98894 134 117 101
-0.824328 -0.757575 1.98392 138 118 93
-0.795692 -0.7573 1.97891 129 113 97
-0.77593 -0.766907 2.00456 139 116 110
-0.746885 -0.766628 1.99948 135 119 106
-0.721868 -0.771287 2.00965 142 120 107
-0.692619 -0.771006 2.00453 142 119 105
-0.666988 -0.775658 2.0146 141 119 105
-0.637535 -0.775376 2.00944 133 113 104
-0.604872 -0.770164 1.98917 140 111 103
-0.578628 -0.774811 1.99913 136 120 95
-0.552161 -0.779782 2.01002 144 121 103
-0.525258 -0.784748 2.02083 143 118 98
-0.495368 -0.784462 2.0156 138 111 100
-0.465478 -0.784175 2.01037 137 110 89
-0.435588 -0.783888 2.00514 136 115 98
-0.405698 -0.783602 1.9999 133 113 102
-0.377486 -0.788556 2.01049 134 111 103
-0.347378 -0.788267 2.00522 130 108 94
-0.31727 -0.787978 1.99995 131 110 93
-0.288185 -0.792924 2.01038 129 110 93
-0.258714 -0.798192 2.02171 132 112 88
-0.228156 -0.797899 2.01636 134 111 95
-0.197598 -0.797606 2.01101 131 110 93
-0.137607 -0.710171 1.7424 21 18 13
-0.10562 -0.802275 2.01141 72 59 53
-0.0742948 -0.807526 2.02242 124 105 88
-0.0440405 -0.801685 2.00063 127 107 96
-0.0122514 -0.806931 2.01156 122 105 87
0.0200012 -0.812173 2.0224 125 107 87
0.0512547 -0.811873 2.01693 129 106 90
0.0825081 -0.811573 2.01146 133 111 88
0.113762 -0.811274 2.00599 127 101 88
0.1473 -0.81683 2.01758 135 110 90
0.176269 -0.810674 1.99505 137 116 87
0.210298 -0.816226 2.00655 130 108 95
0.241797 -0.815923 2.00104 124 105 88
0.273296 -0.815621 1.99552 134 108 91
0.308307 -0.821163 2.00686 125 103 80
0.340052 -0.820859 2.0013 126 106 82
0.371796 -0.820554 1.99574 129 103 90
0.40354 -0.82025 1.99019 117 98 83
0.435285 -0.819946 1.98463 121 98 84
0.467029 -0.819641 1.97907 123 97 82
0.498773 -0.819337 1.97351 116 99 79
0.530518 -0.819032 1.96796 103 86 79
0.562262 -0.818728 1.9624 104 86 74
0.599728 -0.824246 1.9733 86 72 63
0.625751 -0.818119 1.95128 75 65 53
0.559134 -0.725693 1.6864 118 69 75
0.572282 -0.712179 1.64431 153 109 108
0.589527 -0.703197 1.61509 149 121 99
0.611439 -0.698742 1.59864 154 140 114
0.623405 -0.686545 1.56064 153 135 113
0.664946 -0.698228 1.58927 155 135 110
0.6917 -0.697972 1.58459 156 140 115
0.718454 -0.697715 1.5799 174 160 133
0.739757 -0.693593 1.56453 165 144 117
0.760265 -0.689151 1.54832 154 137 107
0.7809 -0.685034 1.53307 148 134 105
0.838341 -0.705056 1.58414 150 132 120
0.86545 -0.704796 1.5794 155 139 114
0.892558 -0.704536 1.57465 152 130 117
0.919666 -0.704276 1.5699 145 129 103
0.939628 -0.699839 1.55379 146 132 105
0.973882 -0.703756 1.56041 152 129 113
1.00099 -0.703496 1.55566 149 115 106
1.00566 -0.691042 1.51797 159 110 106
1.02439 -0.686618 1.50208 147 106 102
1.05884 -0.690532 1.50866 125 101 89
1.10121 -0.698289 1.5255 85 69 56
1.13653 -0.702196 1.53193 77 64 58
1.16364 -0.701936 1.52719 79 68 62
1.2089 -0.710318 1.54546 98 83 62
1.22746 -0.705895 1.5296 94 77 67
1.25476 -0.705633 1.52482 97 78 71
-0.909552 -0.729852 2.00442 134 115 98
-0.880916 -0.729577 1.99941 134 116 102
-0.857326 -0.734045 2.00987 138 119 102
-0.828486 -0.733769 2.00483 133 113 102
-0.804282 -0.738231 2.01518 137 118 112
-0.779669 -0.742689 2.02547 139 116 110
-0.75042 -0.742408 2.02035 135 117 105
-0.725194 -0.746861 2.03053 140 117 111
-0.69574 -0.746578 2.02537 137 111 96
-0.666287 -0.746296 2.02021 136 112 100
-0.640469 -0.751055 2.03126 136 112 100
-0.60738 -0.745731 2.0099 137 113 103
-0.581126 -0.750486 2.02087 136 110 95
-0.551454 -0.750202 2.01568 130 107 89
-0.524546 -0.754951 2.02653 137 119 99
-0.494656 -0.754664 2.0213 88 75 66
-0.464766 -0.754377 2.01607 80 63 55
-0.434876 -0.754091 2.01083 83 70 61
-0.406877 -0.758829 2.0215 85 70 67
-0.376769 -0.758541 2.01623 82 64 60
-0.346661 -0.758252 2.01096 85 69 54
-0.316553 -0.757963 2.00568 86 73 65
-0.286445 -0.757674 2.00041 81 70 64
-0.257986 -0.767729 2.02754 84 65 71
-0.227428 -0.767436 2.02219 83 67 52
-0.197256 -0.772466 2.03345 77 66 60
-0.136966 -0.683323 1.74753 19 17 18
-0.104578 -0.776898 2.03376 64 52 52
-0.073556 -0.7766 2.02833 76 61 54
-0.0425343 -0.776303 2.0229 80 64 64
-0.0115126 -0.776005 2.01747 78 64 55
0.0220547 -0.786636 2.04565 87 73 64
0.0535537 -0.786334 2.04013 78 64 53
0.0850526 -0.786032 2.03462 94 78 65
0.116551 -0.78573 2.0291 97 81 68
0.14805 -0.785428 2.02359 124 101 93
0.179549 -0.785126 2.01807 126 98 87
0.21383 -0.79043 2.02959 125 106 91
0.242547 -0.784522 2.00704 122 106 93
0.274046 -0.78422 2.00153 127 105 92
0.309063 -0.789517 2.01291 122 100 89
0.340808 -0.789212 2.00735 119 103 88
0.376561 -0.794503 2.01861 120 103 87
0.408551 -0.794196 2.01301 116 97 83
0.440541 -0.793889 2.00741 115 94 91
0.467785 -0.787995 1.98512 112 90 79
0.50452 -0.793275 1.9962 107 88 73
0.53651 -0.792969 1.9906 111 88 80
0.5685 -0.792662 1.985 100 81 74
0.60049 -0.792355 1.9794 86 72 59
0.597639 -0.759522 1.87774 44 37 31
0.595033 -0.729504 1.78478 48 25 35
0.572933 -0.684964 1.64951 136 111 107
0.585323 -0.672327 1.60842 152 134 114
0.597781 -0.660629 1.57024 165 146 132
0.60923 -0.64894 1.53224 162 140 126
0.630011 -0.644985 1.51692 141 124 98
0.655592 -0.64474 1.51244 143 127 114
0.697046 -0.655608 1.54021 134 114 113
0.723117 -0.655358 1.53565 156 139 113
0.749189 -0.655108 1.53108 166 146 121
0.763698 -0.647458 1.50519 161 144 114
0.783497 -0.643513 1.49005 167 147 120
0.797369 -0.636182 1.46524 160 136 124
0.811136 -0.629165 1.44142 151 130 99
0.892957 -0.661553 1.53024 136 116 92
0.91937 -0.6613 1.52561 145 120 98
0.939019 -0.657356 1.5105 150 130 106
0.972196 -0.660793 1.51636 139 120 106
0.983836 -0.652858 1.49 146 131 108
1.00265 -0.648922 1.47503 147 125 104
1.01373 -0.641305 1.44974 145 115 105
1.02477 -0.634001 1.42543 123 104 90
1.04294 -0.630384 1.41154 98 84 73
1.10629 -0.647928 1.45689 84 69 62
1.16583 -0.663004 1.49511 77 64 47
1.1835 -0.658766 1.47937 109 100 85
1.20991 -0.658513 1.47474 85 71 58
-0.914319 -0.705847 2.02547 136 120 87
-0.885479 -0.705571 2.02042 127 114 95
-0.856639 -0.705294 2.01537 134 110 100
-0.832635 -0.709554 2.02581 134 112 99
-0.803591 -0.709276 2.02072 136 111 106
-0.783399 -0.718063 2.04645 136 120 104
-0.753946 -0.717781 2.0413 134 115 101
-0.728778 -0.722329 2.0525 134 111 103
-0.699106 -0.722044 2.04731 136 112 102
-0.669434 -0.72176 2.04211 129 110 96
-0.639763 -0.721475 2.03692 132 109 95
-0.610091 -0.721191 2.03172 132 113 99
-0.580419 -0.720906 2.02653 129 110 95
-0.553724 -0.72544 2.03746 125 107 93
-0.523834 -0.725153 2.03223 97 80 72
-0.47029 -0.680035 1.87748 59 52 44
-0.444464 -0.683978 1.88662 71 60 58
-0.416415 -0.683709 1.88171 66 55 49
-0.388366 -0.68344 1.8768 63 53 44
-0.361776 -0.687376 1.8858 67 53 53
-0.332268 -0.682902 1.86698 60 46 33
-0.305296 -0.686835 1.87591 64 54 52
-0.277056 -0.686564 1.87097 62 52 42
-0.248121 -0.682095 1.85224 60 49 43
-0.221621 -0.694713 1.88956 60 51 46
-0.192985 -0.694439 1.88454 53 43 33
-0.163851 -0.677096 1.82383 38 35 26
-0.136129 -0.668448 1.79166 52 49 42
-0.107079 -0.693615 1.8695 26 23 18
-0.0784438 -0.69334 1.86449 47 36 30
-0.0491216 -0.697549 1.87399 52 42 43
-0.0202817 -0.697273 1.86894 56 45 39
0.00746235 -0.692516 1.84945 62 48 45
0.0386986 -0.701198 1.87325 53 40 31
0.0662381 -0.696443 1.85379 60 53 43
0.121404 -0.765066 2.06951 73 63 54
0.153394 -0.764759 2.06391 123 100 92
0.182842 -0.759088 2.04119 122 105 87
0.214586 -0.758784 2.03564 128 105 91
0.249364 -0.763839 2.04711 117 97 88
0.281354 -0.763532 2.04151 122 103 88
0.313343 -0.763225 2.03591 119 98 79
0.349312 -0.768568 2.04815 116 97 80
0.381561 -0.768259 2.0425 117 97 86
0.409313 -0.762305 2.01911 117 98 84
0.446059 -0.76764 2.03121 115 97 85
0.478308 -0.767331 2.02556 108 90 76
0.505282 -0.761384 2.0023 115 99 86
0.542805 -0.766712 2.01427 102 83 66
0.569262 -0.760771 1.9911 98 79 73
0.613355 -0.771724 2.02046 83 69 56
0.604013 -0.734094 1.89916 42 34 31
0.59573 -0.700345 1.79036 46 36 35
0.563879 -0.64976 1.63007 132 114 102
0.572157 -0.634712 1.57984 159 147 125
0.584099 -0.623521 1.54165 170 153 135
0.605039 -0.619728 1.52628 164 147 121
0.616546 -0.60944 1.49109 160 141 126
0.641663 -0.609199 1.48669 149 129 105
0.666781 -0.608958 1.48229 131 113 103
0.696901 -0.611962 1.48775 120 107 91
0.727791 -0.615258 1.49405 142 124 104
0.753222 -0.615014 1.4896 155 139 105
0.772703 -0.611235 1.47448 159 146 112
0.792367 -0.607753 1.46031 165 148 118
0.805977 -0.601037 1.43646 164 142 121
0.818988 -0.594326 1.41272 144 117 96
0.837452 -0.590856 1.39875 127 96 75
0.912011 -0.616784 1.47253 89 51 50
0.944523 -0.620065 1.47855 128 89 72
0.970267 -0.619818 1.47404 86 28 27
0.9821 -0.612819 1.44953 109 31 47
0.993306 -0.605826 1.42513 139 77 62
1.01147 -0.602359 1.41121 154 129 99
1.02223 -0.59567 1.38786 137 122 89
1.0469 -0.595433 1.38355 124 108 83
1.07156 -0.595197 1.37923 104 84 83
1.15872 -0.621603 1.45275 97 80 70
1.17622 -0.617842 1.43798 100 92 71
-0.913632 -0.677097 2.03097 132 115 99
-0.890032 -0.681157 2.04151 131 119 95
-0.860988 -0.680878 2.03643 132 114 92
-0.841605 -0.689265 2.06238 132 115 95
-0.807525 -0.684652 2.04174 130 109 90
-0.787415 -0.693318 2.06855 131 114 94
-0.757743 -0.693033 2.06335 131 117 104
-0.728071 -0.692749 2.05816 133 116 90
-0.702461 -0.697075 2.06933 133 111 98
-0.672572 -0.696789 2.06409 139 111 100
-0.642682 -0.696502 2.05886 127 116 94
-0.612792 -0.696215 2.05363 131 103 91
-0.582902 -0.695929 2.04839 128 107 88
-0.553012 -0.695642 2.04316 128 106 92
-0.490431 -0.640746 1.84632 61 51 42
-0.460913 -0.636462 1.82746 63 59 47
-0.433805 -0.636202 1.82271 60 53 43
-0.408533 -0.63996 1.83199 61 52 43
-0.381234 -0.639698 1.82721 69 60 51
-0.355286 -0.643165 1.83538 58 52 36
-0.326636 -0.639175 1.81765 61 47 44
-0.300333 -0.642637 1.82576 55 50 44
-0.272038 -0.638651 1.80809 49 43 29
-0.246071 -0.646118 1.82996 54 45 36
-0.218404 -0.645852 1.82511 68 59 54
-0.191046 -0.649591 1.83402 63 50 44
-0.162951 -0.64132 1.80171 38 29 22
-0.135683 -0.629627 1.7578 33 29 28
-0.107999 -0.640793 1.79209 31 25 27
-0.079613 -0.648522 1.81451 55 48 38
-0.0524005 -0.64426 1.79605 54 45 38
-0.0238967 -0.647988 1.80475 60 53 47
0.00498877 -0.651711 1.81339 61 47 46
0.0330378 -0.651442 1.80848 64 55 46
0.0610868 -0.651173 1.80357 51 42 37
0.0875358 -0.646919 1.78524 67 52 45
0.156587 -0.738275 2.08817 108 89 75
0.188836 -0.737965 2.08253 114 94 87
0.218136 -0.732255 2.05881 119 100 83
0.250126 -0.731948 2.05321 120 101 86
0.285582 -0.737037 2.06559 119 96 88
0.317831 -0.736728 2.05994 117 98 83
0.35008 -0.736419 2.0543 118 98 87
0.386573 -0.741498 2.06649 114 95 80
0.419081 -0.741187 2.0608 110 95 76
0.451589 -0.740875 2.05511 111 94 76
0.484097 -0.740563 2.04942 113 90 76
0.511325 -0.734872 2.02607 104 88 73
0.549113 -0.739939 2.03804 100 84 69
0.575822 -0.734254 2.01477 94 80 69
0.614129 -0.739316 2.02665 80 70 60
0.588123 -0.68927 1.85902 43 35 33
0.596426 -0.671187 1.79594 45 34 28
0.614883 -0.662437 1.76335 98 84 71
0.563448 -0.601489 1.56202 155 140 119
0.571167 -0.587984 1.51469 166 154 130
0.58762 -0.581539 1.49028 158 142 116
0.603473 -0.5751 1.46599 157 140 112
0.623433 -0.571766 1.45173 159 139 112
0.64795 -0.57153 1.44744 159 143 117
0.672468 -0.571295 1.44314 147 133 107
0.696985 -0.57106 1.43885 144 130 101
0.721502 -0.570825 1.43456 150 137 105
0.751477 -0.573681 1.44007 158 140 116
0.781751 -0.576534 1.44553 166 146 137
0.795054 -0.57012 1.42168 158 144 109
0.807758 -0.563711 1.39794 166 145 116
0.820962 -0.557869 1.37606 166 141 119
0.844907 -0.557639 1.37186 127 105 82
0.868851 -0.557409 1.36767 115 78 60
0.911134 -0.565863 1.3906 130 83 67
0.955472 -0.574868 1.41512 115 71 68
0.98029 -0.57463 1.41077 144 100 91
0.991193 -0.568238 1.38734 146 132 105
1.0015 -0.561853 1.36401 149 133 108
1.01912 -0.558826 1.35115 152 132 107
1.0432 -0.558595 1.34693 137 119 95
1.06728 -0.558364 1.34271 109 92 82
1.15231 -0.58241 1.41294 106 83 77
-0.923824 -0.656615 2.0678 129 111 91
-0.894576 -0.656335 2.06268 133 112 93
-0.865327 -0.656054 2.05756 131 112 97
-0.840904 -0.659903 2.068 125 110 113
-0.81145 -0.65962 2.06284 126 110 95
-0.791419 -0.668138 2.09073 135 112 104
-0.761529 -0.667851 2.08549 122 102 95
-0.731639 -0.667565 2.08026 129 111 99
-0.70175 -0.667278 2.07503 134 105 97
-0.67186 -0.666991 2.06979 133 106 97
-0.64559 -0.671094 2.08089 129 108 91
-0.615482 -0.670805 2.07562 127 104 86
-0.585374 -0.670517 2.07035 133 111 97
-0.555266 -0.670228 2.06507 83 66 58
-0.478617 -0.595732 1.78581 68 59 54
-0.450307 -0.592194 1.76908 72 59 53
-0.424058 -0.591943 1.76449 59 49 50
-0.399379 -0.594972 1.77194 68 53 48
-0.37449 -0.598272 1.78033 74 65 58
-0.346554 -0.594466 1.76269 61 47 47
-0.320141 -0.594212 1.75806 53 44 29
-0.28999 -0.580586 1.70472 30 26 23
-0.264998 -0.583613 1.71211 28 24 21
-0.242128 -0.600268 1.76893 56 45 39
-0.215835 -0.603555 1.77708 61 49 49
-0.189186 -0.606837 1.78517 67 57 48
-0.161973 -0.603038 1.76765 48 38 29
-0.135114 -0.599242 1.75019 54 50 41
-0.10859 -0.595722 1.73378 44 38 40
-0.0816065 -0.598729 1.74083 58 49 40
-0.0548529 -0.598472 1.73614 72 63 54
-0.0273183 -0.601747 1.74407 52 48 36
0.000570847 -0.605017 1.75194 59 54 48
0.027679 -0.604757 1.7472 56 42 42
0.0547872 -0.604497 1.74245 60 46 43
0.0818953 -0.604237 1.7377 60 49 43
0.157355 -0.706125 2.09432 93 73 62
0.189604 -0.705816 2.08867 100 80 71
0.221853 -0.705507 2.08303 106 88 76
0.254101 -0.705197 2.07738 117 93 83
0.28635 -0.704888 2.07174 116 94 80
0.322331 -0.709714 2.08408 117 98 83
0.354839 -0.709403 2.07838 111 91 82
0.391598 -0.714221 2.09059 116 96 87
0.419855 -0.708779 2.067 108 91 75
0.452363 -0.708467 2.06131 112 94 84
