ply
format ascii 1.0
element vertex 1272
property float x
property float y
property float z
property uchar red
property uchar green
property uchar blue
end_header
0.653093 -1.22752 1.67651 136 108 96
0.664848 -1.2019 1.63059 112 85 74
0.693941 -1.20122 1.62468 139 111 99
0.723035 -1.20055 1.61877 144 120 96
0.745781 -1.19193 1.60026 139 111 97
0.781222 -1.1992 1.60695 141 112 104
0.803561 -1.1906 1.58852 139 113 88
0.839409 -1.19786 1.59513 131 114 88
0.868502 -1.19719 1.58922 137 111 98
0.904961 -1.20443 1.59571 142 116 101
0.926689 -1.19584 1.5774 134 113 92
0.955783 -1.19517 1.57149 138 114 104
0.984876 -1.19449 1.56558 132 105 86
1.01397 -1.19382 1.55968 132 105 84
1.04306 -1.19315 1.55377 128 107 86
1.07216 -1.19248 1.54786 129 108 87
1.10125 -1.1918 1.54195 122 104 94
1.13934 -1.19901 1.54811 129 108 81
1.16863 -1.19834 1.54216 126 100 73
1.19793 -1.19766 1.5362 126 109 79
1.23747 -1.20537 1.54299 129 106 88
1.25652 -1.1963 1.5243 125 100 78
1.2965 -1.20401 1.531 125 109 86
1.32601 -1.20333 1.52501 122 102 77
1.35553 -1.20264 1.51901 128 101 80
1.38504 -1.20196 1.51302 117 96 79
1.43764 -1.218 1.53198 116 97 90
-0.806599 -1.09754 1.74255 169 150 144
-0.776456 -1.09053 1.72527 166 147 141
-0.750346 -1.08992 1.71997 184 168 155
-0.727782 -1.09571 1.72654 174 161 145
-0.701509 -1.09511 1.7212 165 154 136
-0.678725 -1.10142 1.72865 167 157 147
-0.652276 -1.1008 1.72328 181 161 160
-0.625827 -1.10019 1.71791 160 141 137
-0.60211 -1.10595 1.72424 176 158 156
-0.575499 -1.10534 1.71884 175 155 157
-0.546482 -1.09836 1.70179 171 153 149
-0.522276 -1.10411 1.70803 171 157 148
-0.495665 -1.10349 1.70262 177 168 151
-0.469053 -1.10288 1.69722 172 160 148
-0.446244 -1.11602 1.71675 179 160 154
-0.417555 -1.10852 1.69884 179 164 157
-0.390767 -1.1079 1.6934 174 163 157
-0.365351 -1.11415 1.70032 168 155 147
-0.338387 -1.11353 1.69484 175 161 152
-0.311423 -1.1129 1.68936 178 163 156
-0.285367 -1.11966 1.69708 180 161 154
-0.258213 -1.11904 1.69156 186 166 167
-0.231059 -1.11841 1.68605 178 160 158
-0.204219 -1.12462 1.69268 178 160 148
-0.176889 -1.12399 1.68713 183 166 158
-0.149559 -1.12336 1.68157 167 149 147
-0.121997 -1.13008 1.68899 179 162 154
-0.0944768 -1.12945 1.6834 181 163 153
-0.0669566 -1.12881 1.67781 172 156 141
-0.0394365 -1.12817 1.67222 174 163 143
-0.0119164 -1.12754 1.66663 171 157 148
0.0156038 -1.1269 1.66104 171 154 146
0.0444948 -1.13359 1.66818 178 163 156
0.0722048 -1.13295 1.66255 157 141 126
0.101665 -1.13963 1.66958 172 158 147
0.127625 -1.13167 1.65129 173 154 147
0.157465 -1.13834 1.65824 175 155 146
0.185365 -1.1377 1.65257 171 155 142
0.213265 -1.13705 1.64691 159 145 132
0.241165 -1.13641 1.64124 163 148 141
0.269065 -1.13576 1.63557 172 152 151
0.300045 -1.14241 1.64229 155 141 130
0.328135 -1.14176 1.63659 158 138 137
0.359684 -1.14839 1.64319 159 141 131
0.384314 -1.14046 1.62517 166 148 134
0.412404 -1.13981 1.61947 156 138 124
0.444523 -1.14643 1.62596 157 139 127
0.472803 -1.14578 1.62021 163 147 131
0.501083 -1.14512 1.61447 169 147 133
0.53429 -1.15224 1.62166 164 142 131
0.567904 -1.15935 1.62877 172 145 138
0.618283 -1.19027 1.67523 154 134 125
0.647797 -1.18958 1.66923 126 107 93
0.671187 -1.18063 1.64961 113 92 71
0.700484 -1.17995 1.64366 141 113 91
0.723633 -1.17153 1.62502 141 116 94
0.752726 -1.17085 1.61911 138 114 88
0.788375 -1.17792 1.62581 138 113 93
0.810913 -1.16951 1.60729 135 108 101
0.846969 -1.17656 1.61391 134 111 77
0.876266 -1.17588 1.60796 131 110 83
0.905563 -1.17521 1.60201 135 108 89
0.93486 -1.17453 1.59606 133 110 94
0.956381 -1.16614 1.57774 127 106 85
0.993454 -1.17317 1.58415 136 112 86
1.01457 -1.1648 1.56593 141 114 97
1.04366 -1.16412 1.56002 133 110 94
1.07275 -1.16345 1.55411 131 105 92
1.10185 -1.16278 1.5482 126 101 79
1.13994 -1.16979 1.5544 131 104 93
1.17905 -1.1773 1.56132 125 107 87
1.20856 -1.17661 1.55533 125 102 86
1.23808 -1.17593 1.54933 120 104 68
1.26759 -1.17525 1.54334 115 95 71
1.2971 -1.17456 1.53734 127 97 95
1.32662 -1.17388 1.53135 126 99 82
1.36725 -1.18136 1.53797 122 102 77
1.39698 -1.18067 1.53193 120 96 84
1.43826 -1.18813 1.53841 126 94 79
-0.806058 -1.07133 1.74819 140 122 122
-0.775919 -1.06448 1.73088 135 121 110
-0.753514 -1.07011 1.73752 145 127 115
-0.727241 -1.0695 1.73218 137 124 116
-0.70463 -1.07564 1.73971 143 130 124
-0.678181 -1.07503 1.73434 140 131 116
-0.654786 -1.08064 1.74077 154 136 126
-0.628174 -1.08002 1.73537 143 125 123
-0.601563 -1.07941 1.72996 143 125 123
-0.574952 -1.07879 1.72456 142 122 123
-0.54834 -1.07818 1.71915 142 125 115
-0.521729 -1.07756 1.71374 138 123 116
-0.499617 -1.09037 1.73349 152 135 125
-0.47058 -1.08304 1.71547 147 133 124
-0.447732 -1.09634 1.73601 140 130 120
-0.422299 -1.10241 1.74296 147 130 120
-0.393425 -1.09509 1.72497 143 126 118
-0.366271 -1.09446 1.71946 150 131 127
-0.339117 -1.09383 1.71394 153 141 127
-0.312978 -1.09989 1.72075 138 120 118
-0.285648 -1.09925 1.7152 150 136 127
-0.258318 -1.09862 1.70965 149 134 129
-0.230988 -1.09799 1.7041 144 129 122
-0.203992 -1.10454 1.71167 151 133 121
-0.176471 -1.1039 1.70608 149 131 129
-0.148951 -1.10327 1.70049 151 132 126
-0.121196 -1.1098 1.7079 153 136 126
-0.0934857 -1.10916 1.70227 154 136 134
-0.0657756 -1.10851 1.69664 146 126 127
-0.0380656 -1.10787 1.69102 154 137 130
-0.0113505 -1.10008 1.67254 146 131 128
0.0173545 -1.10659 1.67976 146 132 119
0.0464392 -1.11309 1.6869 164 147 137
0.0743391 -1.11245 1.68124 147 132 129
0.103994 -1.11893 1.68826 154 142 130
0.130139 -1.11116 1.6699 155 141 132
0.158039 -1.11051 1.66424 153 129 125
0.188263 -1.11698 1.67115 158 141 133
0.216353 -1.11634 1.66544 154 137 129
0.244443 -1.11569 1.65974 156 139 131
0.275426 -1.12214 1.6665 160 141 134
0.303706 -1.12149 1.66075 156 139 123
0.331986 -1.12083 1.65501 154 136 132
0.360265 -1.12018 1.64926 153 140 124
0.392459 -1.12712 1.65671 160 145 140
0.416825 -1.11887 1.63777 155 134 129
0.453747 -1.13339 1.65824 156 140 117
0.482434 -1.13272 1.65242 160 136 132
0.506392 -1.12449 1.63357 158 141 131
0.539807 -1.1314 1.64076 156 134 123
0.568493 -1.13073 1.63494 161 143 123
0.624584 -1.16889 1.69533 150 131 114
0.654315 -1.1682 1.68929 111 96 75
0.677918 -1.15946 1.66958 126 103 89
0.707432 -1.15877 1.66358 136 108 87
0.736946 -1.15809 1.65759 140 111 95
0.76646 -1.15741 1.65159 140 114 87
0.795974 -1.15673 1.6456 143 111 96
0.825488 -1.15604 1.6396 137 112 92
0.855002 -1.15536 1.63361 137 110 91
0.884516 -1.15468 1.62761 136 111 91
0.906165 -1.14598 1.6083 138 111 94
0.935462 -1.1453 1.60235 133 112 91
0.964759 -1.14462 1.5964 129 106 88
0.994056 -1.14395 1.59045 135 114 93
1.02335 -1.14327 1.5845 128 102 85
1.05265 -1.14259 1.57855 130 103 94
1.09111 -1.1499 1.58565 134 113 92
1.12063 -1.14922 1.57965 128 106 83
1.15014 -1.14853 1.57366 133 106 89
1.17966 -1.14785 1.56766 123 104 87
1.20917 -1.14717 1.56167 125 96 78
1.23868 -1.14649 1.55567 124 103 82
1.27867 -1.15376 1.56247 121 101 68
1.29771 -1.14512 1.54368 127 102 95
1.33813 -1.15238 1.55039 129 101 89
1.37898 -1.15964 1.55701 127 99 77
1.40893 -1.15894 1.55093 123 94 78
1.4627 -1.17461 1.57077 125 102 94
-0.813907 -1.05778 1.77892 148 121 112
-0.795667 -1.07033 1.79953 143 124 110
-0.760684 -1.05655 1.76811 137 118 111
-0.737906 -1.06251 1.77564 139 117 106
-0.714775 -1.06846 1.7831 137 117 106
-0.684331 -1.06127 1.76476 140 122 110
-0.664406 -1.07428 1.78596 149 122 113
-0.637252 -1.07365 1.78045 142 121 118
-0.610098 -1.07302 1.77493 150 126 116
-0.582944 -1.07239 1.76942 147 124 116
-0.55579 -1.07177 1.7639 141 122 108
-0.531059 -1.07768 1.77103 141 124 117
-0.503728 -1.07705 1.76548 141 122 115
-0.476398 -1.07641 1.75993 134 118 102
-0.451107 -1.08281 1.76789 151 136 117
-0.423587 -1.08218 1.7623 149 131 111
-0.396067 -1.08154 1.75671 141 121 110
-0.368547 -1.0809 1.75112 142 123 106
-0.342306 -1.08728 1.75888 143 122 103
-0.314596 -1.08664 1.75325 138 119 104
-0.286886 -1.086 1.74763 145 123 112
-0.258466 -1.07836 1.72876 138 121 103
-0.231986 -1.09171 1.74957 148 120 106
-0.204417 -1.09806 1.75706 147 123 113
-0.176187 -1.09042 1.73823 144 120 110
-0.148237 -1.09676 1.74565 142 120 107
-0.120147 -1.09611 1.73994 140 118 104
-0.0916284 -1.10243 1.74724 138 116 102
-0.0639678 -1.09481 1.72853 130 108 95
-0.0358779 -1.09416 1.72283 131 112 98
-0.00678926 -1.10047 1.73001 135 115 104
0.0214904 -1.09982 1.72427 130 111 97
0.0512472 -1.10661 1.73225 131 104 97
0.0797304 -1.10595 1.72647 125 103 92
0.108214 -1.10529 1.72068 133 111 100
0.136697 -1.10463 1.7149 126 104 91
0.16518 -1.10398 1.70911 124 105 91
0.193663 -1.10332 1.70332 119 101 91
0.224844 -1.11008 1.71102 116 98 88
0.250629 -1.102 1.69175 126 107 92
0.282217 -1.10875 1.69937 114 94 83
0.310904 -1.10809 1.69354 125 102 96
0.343102 -1.11483 1.70103 120 100 89
0.371992 -1.11416 1.69516 115 97 87
0.400882 -1.11349 1.68929 123 101 87
0.429772 -1.11282 1.68342 117 95 82
0.467313 -1.12692 1.70385 123 100 92
0.487552 -1.11148 1.67169 120 98 84
0.521175 -1.11819 1.67889 122 105 89
0.545332 -1.11015 1.65995 129 111 87
0.584501 -1.12421 1.68005 138 116 103
0.619497 -1.13138 1.68791 132 109 95
0.649011 -1.1307 1.68191 143 117 104
0.672392 -1.12217 1.6622 148 123 103
0.714389 -1.13717 1.6836 131 109 88
0.737553 -1.12865 1.66393 137 112 92
0.767067 -1.12797 1.65793 127 105 94
0.796581 -1.12728 1.65194 136 110 95
0.826095 -1.1266 1.64594 139 109 99
0.863043 -1.13373 1.6534 135 112 94
0.892774 -1.13304 1.64736 134 111 93
0.922505 -1.13235 1.64132 133 107 84
0.952236 -1.13166 1.63528 128 106 83
0.973665 -1.12319 1.61597 130 101 87
1.0117 -1.13029 1.62321 136 111 91
1.04143 -1.1296 1.61717 131 101 101
1.07116 -1.12891 1.61113 132 105 86
1.10089 -1.12823 1.60509 126 100 85
1.13062 -1.12754 1.59905 123 103 79
1.16035 -1.12685 1.59301 128 108 84
1.18026 -1.11841 1.574 128 100 88
1.21982 -1.12548 1.58093 123 106 78
1.2598 -1.13253 1.58778 116 98 78
1.28975 -1.13184 1.58169 124 103 82
1.30901 -1.12341 1.56282 121 93 81
1.36055 -1.13818 1.58227 117 94 76
1.39072 -1.13748 1.57615 115 100 81
1.42088 -1.13679 1.57002 118 101 81
1.45105 -1.13609 1.56389 108 96 74
-0.822077 -1.04405 1.8108 131 104 95
-0.795113 -1.04343 1.80532 130 111 96
-0.772463 -1.0497 1.81386 125 114 94
-0.741185 -1.04218 1.79437 133 115 103
-0.721809 -1.05484 1.81577 136 114 103
-0.694478 -1.05421 1.81021 130 108 95
-0.667148 -1.05357 1.80466 137 115 102
-0.639818 -1.05294 1.79911 140 119 98
-0.612487 -1.05231 1.79356 130 111 94
-0.585157 -1.05168 1.78801 135 113 92
-0.560622 -1.0579 1.79616 143 119 117
-0.535707 -1.06412 1.80423 133 119 93
-0.507997 -1.06348 1.79861 135 117 103
-0.480287 -1.06284 1.79298 136 112 110
-0.454612 -1.06904 1.8009 135 117 93
-0.426712 -1.0684 1.79523 136 110 95
-0.400468 -1.07458 1.80303 139 120 105
-0.372378 -1.07393 1.79733 136 115 96
-0.344288 -1.07328 1.79162 136 118 98
-0.316199 -1.07263 1.78592 136 116 107
-0.288109 -1.07198 1.78021 138 119 102
-0.260019 -1.07134 1.77451 137 116 99
-0.231929 -1.07069 1.7688 140 112 100
-0.204166 -1.07684 1.7763 142 116 115
-0.176032 -1.08347 1.78465 145 122 91
-0.147549 -1.08281 1.77887 139 118 97
-0.119066 -1.08215 1.77308 137 116 97
-0.0905829 -1.08149 1.7673 138 115 99
-0.0620998 -1.08083 1.76151 144 123 96
-0.0336166 -1.08017 1.75573 144 119 99
-0.00513347 -1.07951 1.74994 144 116 102
0.0233497 -1.07885 1.74416 135 119 103
0.0533141 -1.08544 1.75214 139 115 103
0.0820007 -1.08478 1.74632 141 116 96
0.110687 -1.08411 1.74049 145 120 100
0.141466 -1.09068 1.74831 141 114 95
0.168061 -1.08279 1.72884 136 118 96
0.199246 -1.08935 1.73657 147 121 106
0.230838 -1.09589 1.74423 143 117 104
0.259931 -1.09522 1.73832 140 112 100
0.289025 -1.09455 1.73241 139 117 96
0.321431 -1.10108 1.7399 138 112 97
0.350728 -1.1004 1.73395 139 117 94
0.383992 -1.1074 1.74221 131 108 94
0.413506 -1.10671 1.73621 138 117 100
0.44302 -1.10603 1.73022 138 109 105
0.472534 -1.10535 1.72422 142 112 101
0.502048 -1.10467 1.71823 134 114 87
0.531562 -1.10398 1.71223 143 118 98
0.561076 -1.1033 1.70624 137 116 85
0.596076 -1.11026 1.71414 143 119 93
0.625807 -1.10957 1.7081 145 115 104
0.655538 -1.10888 1.70206 144 120 96
0.685269 -1.10819 1.69602 115 95 70
0.721354 -1.11512 1.7037 125 100 80
0.744731 -1.10682 1.68394 134 108 93
0.774462 -1.10613 1.67791 143 119 95
0.804193 -1.10544 1.67187 135 112 96
0.833924 -1.10475 1.66583 133 116 86
0.871094 -1.11166 1.67329 132 111 90
0.901042 -1.11097 1.66721 132 112 79
0.93099 -1.11027 1.66112 127 106 79
0.960938 -1.10958 1.65504 132 110 89
0.990886 -1.10889 1.64896 134 113 86
1.02083 -1.1082 1.64287 126 115 83
1.05078 -1.1075 1.63679 133 108 88
1.08073 -1.10681 1.63071 122 95 76
1.11068 -1.10612 1.62462 122 101 82
1.14063 -1.10543 1.61854 121 103 83
1.18018 -1.11228 1.62552 131 106 84
1.20052 -1.10404 1.60638 119 99 90
1.24051 -1.11088 1.61326 122 100 77
1.26042 -1.10266 1.59421 115 93 79
1.30084 -1.10949 1.60101 126 97 91
1.33101 -1.10879 1.59488 133 103 93
1.36117 -1.10809 1.58875 120 102 88
1.39134 -1.10739 1.58263 121 95 70
1.4215 -1.10669 1.5765 123 96 89
1.46395 -1.11396 1.58383 120 98 75
-0.826213 -1.02387 1.83072 140 122 108
-0.794559 -1.01653 1.81112 143 121 107
-0.771905 -1.02261 1.81969 142 126 113
-0.744751 -1.02198 1.81418 135 118 111
-0.725177 -1.03427 1.83561 143 123 112
-0.701397 -1.04032 1.84396 136 118 94
-0.670137 -1.033 1.82443 153 131 120
-0.642617 -1.03236 1.81884 141 123 103
-0.618267 -1.0384 1.82707 144 127 101
-0.590557 -1.03776 1.82144 146 127 113
-0.562847 -1.03712 1.81581 140 124 99
-0.537738 -1.04314 1.82389 144 127 119
-0.509838 -1.0425 1.81822 149 126 110
-0.481939 -1.04185 1.81256 140 121 107
-0.458102 -1.05451 1.83407 138 121 101
-0.429822 -1.05386 1.82832 148 124 98
-0.401542 -1.0532 1.82258 150 129 108
-0.373263 -1.05255 1.81684 148 130 106
-0.344983 -1.0519 1.81109 142 120 97
-0.316703 -1.05124 1.80535 151 125 110
-0.288423 -1.05059 1.7996 142 126 103
-0.260144 -1.04993 1.79386 142 121 100
-0.231864 -1.04928 1.78812 145 124 107
-0.204275 -1.0628 1.81075 147 123 111
-0.175589 -1.06213 1.80492 149 127 114
-0.146902 -1.06147 1.79909 137 121 108
-0.118216 -1.0608 1.79327 142 115 88
-0.0890609 -1.06721 1.80146 143 121 107
-0.0601708 -1.06654 1.79559 138 118 94
-0.0321559 -1.05881 1.77579 139 116 98
-0.00239067 -1.0652 1.78386 140 122 98
0.0264994 -1.06453 1.77799 139 118 99
0.0583604 -1.07795 1.79975 138 112 97
0.0876573 -1.07727 1.7938 141 118 100
0.116954 -1.0766 1.78785 137 114 98
0.146251 -1.07592 1.7819 140 117 103
0.175548 -1.07524 1.77595 137 115 94
0.204845 -1.07456 1.77 138 116 92
0.234142 -1.07388 1.76405 136 112 100
0.263439 -1.07321 1.7581 137 115 102
0.292736 -1.07253 1.75215 134 107 96
0.329108 -1.08679 1.77488 134 111 97
0.355085 -1.07864 1.75454 132 113 96
0.38857 -1.08541 1.7628 134 107 90
0.418301 -1.08472 1.75676 129 106 92
0.448032 -1.08403 1.75072 129 108 89
0.477763 -1.08335 1.74468 132 104 90
0.507494 -1.08266 1.73864 135 109 82
0.537225 -1.08197 1.7326 133 108 86
0.566956 -1.08128 1.72656 131 106 86
0.607669 -1.09544 1.74841 125 107 85
0.632126 -1.08733 1.72839 126 108 86
0.662074 -1.08663 1.7223 131 107 83
0.692022 -1.08594 1.71622 130 105 83
0.72197 -1.08525 1.71014 132 111 92
0.751918 -1.08455 1.70405 136 111 89
0.781866 -1.08386 1.69797 134 108 93
0.811814 -1.08317 1.69189 135 108 91
0.841762 -1.08248 1.6858 128 108 97
0.879154 -1.08916 1.69327 134 112 89
0.909319 -1.08846 1.68714 129 105 81
0.939484 -1.08776 1.68101 136 110 87
0.969649 -1.08707 1.67489 133 108 86
0.999814 -1.08637 1.66876 132 105 88
1.02998 -1.08567 1.66263 130 102 98
1.0514 -1.07763 1.64322 136 115 84
1.08135 -1.07694 1.63714 130 104 89
1.11129 -1.07624 1.63106 123 106 88
1.15064 -1.08288 1.63812 123 102 85
1.1808 -1.08218 1.632 126 106 79
1.21097 -1.08149 1.62587 128 102 77
1.24113 -1.08079 1.61974 117 103 77
1.2713 -1.08009 1.61362 116 94 81
1.30146 -1.07939 1.60749 112 91 74
1.33163 -1.07869 1.60136 123 103 92
1.37339 -1.08575 1.60888 115 93 69
1.39196 -1.0773 1.58911 127 98 92
1.43418 -1.08434 1.59653 113 95 95
1.47687 -1.09138 1.60386 112 94 74
-0.830006 -1.00284 1.84971 140 122 98
-0.802676 -1.00221 1.84416 141 123 101
-0.779652 -1.00809 1.8527 146 128 106
-0.752131 -1.00745 1.84711 144 125 119
-0.724611 -1.00682 1.84152 151 130 111
-0.700828 -1.01268 1.84991 140 117 109
-0.673118 -1.01204 1.84428 143 122 103
-0.648764 -1.01789 1.85255 144 125 111
-0.620865 -1.01725 1.84689 149 127 106
-0.592965 -1.0166 1.84122 149 128 109
-0.565065 -1.01596 1.83555 146 125 120
-0.539762 -1.02179 1.84363 144 124 115
-0.511672 -1.02114 1.83792 147 125 112
-0.483582 -1.02049 1.83222 147 125 101
-0.45752 -1.0263 1.84014 149 123 110
-0.429241 -1.02565 1.8344 145 121 97
-0.400961 -1.02499 1.82866 154 127 110
-0.372681 -1.02434 1.82291 149 122 105
-0.344401 -1.02368 1.81717 147 120 103
-0.317277 -1.02993 1.82582 143 121 107
-0.289746 -1.03617 1.83439 146 128 106
-0.260311 -1.02861 1.81425 144 118 101
-0.232372 -1.03484 1.82274 141 118 100
-0.204027 -1.04106 1.83114 146 124 113
-0.175137 -1.04039 1.82527 141 119 105
-0.146247 -1.03972 1.8194 145 119 96
-0.117088 -1.04592 1.82764 144 121 105
-0.0879945 -1.04525 1.82173 140 115 95
-0.058901 -1.04458 1.81582 138 116 102
-0.0298075 -1.0439 1.80992 142 121 102
-0.000713969 -1.04323 1.80401 139 119 92
0.0283796 -1.04256 1.7981 135 115 104
0.0589627 -1.04872 1.80605 145 120 113
0.0900657 -1.05534 1.81484 136 114 101
0.11958 -1.05465 1.80884 137 118 104
0.146854 -1.04669 1.78819 141 118 104
0.176151 -1.04601 1.78224 139 113 100
0.208122 -1.05261 1.79086 138 112 95
0.237636 -1.05192 1.78486 141 117 105
0.26715 -1.05124 1.77887 139 113 98
0.296663 -1.05056 1.77287 136 109 98
0.32972 -1.05713 1.78126 132 107 87
0.359451 -1.05644 1.77522 138 115 99
0.393158 -1.06299 1.78348 131 109 96
0.418912 -1.05506 1.76315 127 106 87
0.448643 -1.05437 1.75711 131 115 90
0.483002 -1.06091 1.76523 130 107 89
0.51295 -1.06022 1.75915 140 110 99
0.542898 -1.05953 1.75307 137 111 96
0.572846 -1.05883 1.74699 133 108 88
0.608289 -1.06535 1.75489 131 110 89
0.638454 -1.06465 1.74877 130 104 87
0.674919 -1.0716 1.75741 132 102 91
0.698784 -1.06325 1.73651 127 108 93
0.722586 -1.05537 1.71657 126 106 99
0.759114 -1.06186 1.72426 126 104 90
0.782482 -1.05399 1.7044 122 103 89
0.819444 -1.06046 1.712 133 111 90
0.842378 -1.0526 1.69224 132 108 74
0.879774 -1.05907 1.69975 130 112 90
0.918083 -1.06597 1.70802 127 106 85
0.948479 -1.06527 1.70184 131 109 85
0.978875 -1.06457 1.69567 130 109 90
1.00927 -1.06386 1.6895 124 109 78
1.0306 -1.05558 1.66911 125 103 92
1.06076 -1.05488 1.66299 129 106 75
1.09093 -1.05418 1.65686 127 106 79
1.12109 -1.05349 1.65073 133 108 78
1.16125 -1.06035 1.65863 123 97 84
1.19164 -1.05964 1.65245 120 96 70
1.22204 -1.05894 1.64628 118 100 78
1.25243 -1.05824 1.6401 116 91 84
1.27192 -1.05 1.6201 119 91 88
1.31323 -1.05683 1.62776 113 91 78
1.34362 -1.05613 1.62158 119 96 82
1.37402 -1.05543 1.61541 120 93 86
1.40441 -1.05472 1.60923 110 92 68
1.43481 -1.05402 1.60306 119 90 94
1.4775 -1.06082 1.61044 118 94 70
-0.834126 -0.981907 1.86979 144 120 108
-0.806606 -0.981271 1.8642 142 122 111
-0.783388 -0.98696 1.87275 144 123 102
-0.755678 -0.986319 1.86712 134 117 101
-0.731891 -0.991995 1.87555 146 129 109
-0.703991 -0.99135 1.86988 144 129 100
-0.679634 -0.997013 1.87819 135 116 109
-0.651544 -0.996363 1.87249 140 125 94
-0.623454 -0.995713 1.86678 148 125 109
-0.595364 -0.995064 1.86108 141 120 103
-0.567274 -0.994414 1.85537 143 122 119
-0.541778 -1.00005 1.86345 142 119 103
-0.513498 -0.999396 1.85771 144 122 111
-0.485219 -0.998742 1.85196 138 124 111
-0.459107 -1.00481 1.86087 146 129 113
-0.430624 -1.00415 1.85508 149 126 118
-0.402141 -1.00349 1.84929 137 119 109
-0.373658 -1.00283 1.84351 153 132 115
-0.345174 -1.00217 1.83772 150 127 111
-0.317842 -1.00821 1.84638 144 123 104
-0.289156 -1.00755 1.84055 142 121 100
-0.261213 -1.01357 1.84908 143 121 107
-0.232323 -1.01291 1.84321 148 126 112
-0.20377 -1.01892 1.85162 141 122 107
-0.174677 -1.01824 1.84571 139 122 104
-0.145583 -1.01757 1.8398 137 121 95
-0.116217 -1.02356 1.84804 147 123 111
-0.0869197 -1.02289 1.84209 143 121 98
-0.0576228 -1.02221 1.83614 146 127 110
-0.0292093 -1.01488 1.81616 143 120 102
0.000971147 -1.02085 1.82424 137 117 106
0.0302681 -1.02017 1.81829 147 126 97
0.0611585 -1.02658 1.82717 143 122 103
0.0906725 -1.02589 1.82118 135 117 93
0.120186 -1.02521 1.81518 138 118 94
0.1497 -1.02453 1.80919 137 119 97
0.179214 -1.02385 1.80319 146 121 99
0.211407 -1.03022 1.81181 134 116 92
0.241138 -1.02953 1.80577 139 113 98
0.270869 -1.02884 1.79973 142 119 103
0.3006 -1.02815 1.79369 143 113 102
0.333877 -1.0345 1.80208 128 102 87
0.367589 -1.04084 1.81039 135 113 90
0.393773 -1.03311 1.78992 138 110 98
0.427919 -1.03944 1.79814 138 111 102
0.458084 -1.03874 1.79201 132 107 85
0.49317 -1.04549 1.80098 132 110 86
0.518414 -1.03735 1.77975 132 111 90
0.548579 -1.03665 1.77363 135 114 95
0.578744 -1.03595 1.7675 133 111 90
0.620596 -1.0501 1.7912 135 114 95
0.645148 -1.04198 1.77011 131 112 95
0.675544 -1.04127 1.76394 120 100 89
0.687103 -1.01921 1.71518 144 127 117
0.716834 -1.01853 1.70914 135 119 93
0.73998 -1.01087 1.68929 122 103 89
0.756315 -0.99671 1.65661 140 122 100
0.799008 -1.00951 1.6773 135 117 97
0.842993 -1.02272 1.69867 123 105 83
0.888313 -1.03635 1.72072 122 105 89
0.910559 -1.02828 1.7001 124 105 88
0.940724 -1.02758 1.69397 131 110 91
0.970889 -1.02688 1.68785 128 106 93
1.01874 -1.0409 1.71033 127 110 80
1.04029 -1.03284 1.68985 127 108 94
1.07069 -1.03213 1.68368 130 109 78
1.10108 -1.03143 1.6775 127 104 88
1.13148 -1.03073 1.67133 123 102 85
1.17187 -1.03735 1.67923 121 101 77
1.19227 -1.02932 1.65898 122 98 86
1.22266 -1.02862 1.65281 117 101 88
1.25306 -1.02792 1.64663 122 100 76
1.28346 -1.02721 1.64046 121 98 82
1.3027 -1.01921 1.62045 96 88 75
1.31145 -1.00477 1.58836 92 80 80
1.36303 -1.01781 1.6082 98 81 65
1.40504 -1.0244 1.61576 107 88 74
1.4475 -1.03098 1.62324 108 93 74
1.46583 -1.02299 1.60342 85 69 53
-0.838238 -0.960598 1.88996 141 118 102
-0.810528 -0.959957 1.88433 138 111 100
-0.782818 -0.959316 1.8787 143 121 100
-0.755108 -0.958675 1.87307 145 120 98
-0.735236 -0.97029 1.89564 144 124 113
-0.703417 -0.963517 1.87587 144 118 105
-0.682595 -0.975109 1.89825 146 129 109
-0.650966 -0.96834 1.87852 143 122 105
-0.622877 -0.967691 1.87282 143 122 103
-0.594787 -0.967041 1.86711 145 122 106
-0.569476 -0.972493 1.87527 143 118 113
-0.543971 -0.978371 1.88434 148 126 103
-0.515488 -0.977712 1.87856 146 124 113
-0.487005 -0.977053 1.87277 139 123 100
-0.460686 -0.982913 1.88168 151 126 104
-0.431999 -0.982249 1.87585 147 122 100
-0.403312 -0.981586 1.87002 143 120 104
-0.37618 -0.987426 1.87876 147 122 100
-0.347289 -0.986758 1.87289 147 124 108
-0.318399 -0.98609 1.86703 142 124 104
-0.290453 -0.991912 1.8756 150 125 103
-0.260619 -0.984753 1.85529 144 119 99
-0.231729 -0.984085 1.84942 150 129 112
-0.203505 -0.996369 1.87219 141 114 93
-0.174208 -0.995691 1.86624 139 116 100
-0.144911 -0.995013 1.86029 146 120 103
-0.115614 -0.994336 1.85434 147 124 106
-0.0863174 -0.993658 1.84839 138 118 93
-0.0570204 -0.992981 1.84244 112 100 76
-0.0277235 -0.992303 1.83649 141 122 115
0.00157348 -0.991625 1.83054 131 114 88
0.0308704 -0.990948 1.82458 132 114 92
0.0649611 -1.01086 1.86326 136 116 92
0.0930941 -1.00331 1.84235 139 117 94
0.122825 -1.00262 1.83631 142 116 101
0.152556 -1.00193 1.83027 137 112 92
0.184753 -1.00809 1.83893 136 114 93
0.217384 -1.01423 1.8475 136 119 91
0.247549 -1.01353 1.84138 135 112 98
0.274597 -1.00601 1.82068 141 119 96
0.304545 -1.00532 1.8146 133 109 97
0.341817 -1.01868 1.83838 133 115 91
0.372213 -1.01798 1.83221 131 116 87
0.402608 -1.01728 1.82603 136 118 96
0.428539 -1.00935 1.80462 126 102 92
0.463399 -1.01587 1.81369 134 109 87
0.488869 -1.00795 1.79236 134 104 93
0.524191 -1.01447 1.80134 135 109 94
0.554586 -1.01376 1.79516 131 111 84
0.584982 -1.01306 1.78899 126 103 89
0.621226 -1.01955 1.79778 121 104 84
0.651852 -1.01884 1.79156 126 103 87
0.676169 -1.01095 1.77047 101 83 79
0.687714 -0.989554 1.72157 132 128 101
0.698726 -0.969032 1.67468 90 76 63
0.721643 -0.962034 1.65577 137 122 99
0.737771 -0.948724 1.62399 156 142 107
0.766254 -0.948066 1.61821 156 142 115
0.78795 -0.941096 1.59955 151 133 109
0.851185 -0.971974 1.65796 129 97 74
0.880482 -0.971296 1.65201 127 88 73
0.909779 -0.970619 1.64606 129 120 91
0.939076 -0.969941 1.64011 134 118 93
0.968373 -0.969263 1.63416 132 112 87
0.99767 -0.968586 1.62821 135 117 97
1.04449 -0.981302 1.6491 124 109 78
1.07422 -0.980614 1.64306 131 110 91
1.11314 -0.986613 1.65036 125 105 80
1.1625 -0.999702 1.67169 120 100 89
1.21335 -1.01319 1.69366 107 87 62
1.23375 -1.00538 1.67336 102 83 66
1.25368 -0.997592 1.65316 93 71 73
1.26288 -0.98315 1.61994 77 63 54
1.26134 -0.962487 1.57465 87 74 66
1.29064 -0.96181 1.5687 88 74 63
1.33087 -0.967779 1.57573 73 56 49
1.39382 -0.987021 1.60855 71 60 56
1.43606 -0.993374 1.61612 65 57 38
1.45415 -0.985625 1.59629 62 52 43
-0.837669 -0.932954 1.89591 137 118 104
-0.814443 -0.938265 1.90454 134 117 107
-0.782249 -0.931672 1.88465 135 118 108
-0.758643 -0.936974 1.8932 140 127 111
-0.734658 -0.942267 1.90167 139 111 107
-0.706568 -0.941617 1.89597 138 120 98
-0.682014 -0.946897 1.90432 139 120 106
-0.653734 -0.946243 1.89858 148 121 110
-0.628835 -0.951932 1.90782 145 122 116
-0.600352 -0.951273 1.90203 145 120 115
-0.571868 -0.950615 1.89624 148 128 103
-0.546156 -0.956285 1.90532 144 127 107
-0.517469 -0.955622 1.89949 138 121 103
-0.488782 -0.954958 1.89366 145 126 111
-0.462256 -0.96061 1.90257 135 118 102
-0.433366 -0.959942 1.8967 142 120 96
-0.404476 -0.959274 1.89084 142 125 99
-0.375586 -0.958605 1.88497 143 125 103
-0.346695 -0.957937 1.8791 143 119 109
-0.318948 -0.963561 1.88776 141 122 105
-0.289855 -0.962888 1.88185 150 125 103
-0.260761 -0.962215 1.87594 141 115 98
-0.2322 -0.967819 1.88443 144 122 109
-0.202903 -0.967142 1.87848 146 124 110
-0.173606 -0.966464 1.87253 140 123 107
-0.144226 -0.972468 1.88181 137 117 93
-0.114712 -0.971785 1.87582 138 120 100
-0.0857151 -0.964431 1.85468 132 111 92
-0.0677998 -0.86043 1.61468 56 45 41
-0.04258 -0.854835 1.59813 35 28 22
0.00451246 -0.97571 1.86685 110 94 78
0.0342434 -0.975023 1.86081 135 117 93
0.0655768 -0.980981 1.8697 139 121 97
0.0973442 -0.986929 1.87849 142 126 101
0.127509 -0.986231 1.87237 136 117 100
0.157674 -0.985534 1.86624 138 115 101
0.187839 -0.984836 1.86011 139 114 94
0.218004 -0.984138 1.85398 139 114 94
0.248169 -0.983441 1.84786 140 113 96
0.278334 -0.982743 1.84173 138 118 94
0.308499 -0.982045 1.8356 136 112 100
0.342442 -0.988361 1.84491 144 116 104
0.372838 -0.987658 1.83874 131 113 89
0.403233 -0.986955 1.83256 131 110 91
0.433629 -0.986252 1.82639 132 111 92
0.468724 -0.992541 1.83546 127 111 85
0.49442 -0.984846 1.81404 125 108 88
0.524816 -0.984143 1.80787 126 102 90
0.555211 -0.98344 1.80169 124 105 88
0.591229 -0.989707 1.81058 127 105 91
0.627708 -0.995964 1.81937 126 104 90
0.658565 -0.99525 1.8131 115 96 79
0.676794 -0.980627 1.777 119 103 88
0.682166 -0.953353 1.71396 134 119 98
0.693347 -0.933881 1.66785 152 131 110
0.703692 -0.914846 1.62286 161 141 116
0.726012 -0.908482 1.60498 159 139 112
0.754102 -0.907832 1.59928 158 140 116
0.775853 -0.901482 1.58152 154 137 109
0.816811 -0.91223 1.59988 144 120 96
0.852289 -0.917674 1.60697 140 114 91
0.888175 -0.92311 1.61398 153 130 112
0.932073 -0.934625 1.63365 149 131 111
0.945548 -0.921782 1.60232 143 129 100
0.966222 -0.915039 1.58383 141 123 99
0.986489 -0.908305 1.56542 142 121 102
1.01477 -0.907651 1.55967 131 113 101
1.04305 -0.906997 1.55393 125 114 94
1.07133 -0.906343 1.54818 122 101 80
1.09961 -0.905689 1.54244 114 91 75
1.11927 -0.899386 1.5251 106 88 68
1.18448 -0.922521 1.56809 86 74 58
1.22301 -0.927896 1.57456 84 75 58
1.23241 -0.915147 1.54406 95 85 76
1.27115 -0.920517 1.55048 78 71 63
1.31029 -0.925877 1.55683 65 59 43
1.32893 -0.91918 1.53875 61 57 45
1.36848 -0.924531 1.54501 78 69 60
1.39757 -0.923858 1.5391 71 62 53
-0.84177 -0.911077 1.9162 136 113 97
-0.81387 -0.910431 1.91053 138 117 98
-0.79026 -0.915544 1.91912 134 116 102
-0.762171 -0.914894 1.91341 134 119 98
-0.742182 -0.926152 1.93708 138 113 108
-0.713699 -0.925494 1.93129 145 124 105
-0.685215 -0.924835 1.92551 144 117 108
-0.656732 -0.924176 1.91972 140 122 100
-0.631626 -0.929658 1.92896 139 116 108
-0.602939 -0.928994 1.92313 143 124 109
-0.574252 -0.928331 1.91731 143 120 104
-0.548332 -0.933794 1.92638 145 123 100
-0.516879 -0.927004 1.90565 143 120 102
-0.490552 -0.932457 1.91465 145 121 111
-0.461662 -0.931789 1.90878 141 122 107
-0.434724 -0.937228 1.91765 143 122 103
-0.40563 -0.936555 1.91174 143 120 104
-0.376537 -0.935882 1.90583 143 124 107
-0.347443 -0.93521 1.89992 142 119 103
-0.31835 -0.934537 1.89401 149 127 114
-0.290191 -0.939948 1.90263 145 125 101
-0.260894 -0.93927 1.89668 148 121 102
-0.231598 -0.938593 1.89073 135 117 93
-0.202647 -0.94439 1.90014 142 121 100
-0.173262 -0.950176 1.90947 131 113 93
-0.143531 -0.949489 1.90343 146 121 99
-0.113495 -0.955261 1.91263 142 119 103
-0.0835475 -0.954568 1.90655 126 105 86
-0.0666663 -0.839799 1.63256 24 14 25
-0.0413334 -0.833959 1.61499 23 17 17
0.00629654 -0.95249 1.8883 103 84 78
0.0362445 -0.951797 1.88221 130 113 93
0.0695066 -0.964365 1.90701 133 114 99
0.0979644 -0.956836 1.88497 136 110 97
0.130298 -0.962959 1.89466 138 116 93
0.158294 -0.955441 1.87272 132 111 94
0.188459 -0.954743 1.86659 133 115 103
0.221485 -0.96085 1.87614 141 118 104
0.25188 -0.960147 1.86996 138 114 104
0.282276 -0.959444 1.86379 138 116 95
0.312671 -0.958741 1.85761 131 108 92
0.346849 -0.964821 1.86692 129 106 92
0.373463 -0.957335 1.84527 129 107 86
0.408102 -0.963404 1.85448 130 106 94
0.438728 -0.962696 1.84826 134 111 93
0.469354 -0.961988 1.84204 128 106 83
0.49998 -0.961279 1.83582 127 107 83
0.530606 -0.960571 1.8296 120 99 82
0.561233 -0.959863 1.82338 122 105 85
0.591859 -0.959154 1.81716 120 98 85
0.6342 -0.971916 1.84106 114 93 76
0.659199 -0.964467 1.81973 108 88 81
0.690056 -0.963754 1.81347 94 77 67
0.682772 -0.92391 1.7203 121 96 91
0.675994 -0.887288 1.63468 149 131 111
0.6985 -0.881109 1.61672 169 149 124
0.714663 -0.869419 1.58667 161 125 113
0.742373 -0.868778 1.58104 164 141 123
0.76374 -0.862625 1.56332 155 138 122
0.79126 -0.861989 1.55773 147 130 102
0.812058 -0.855849 1.54012 150 129 108
0.846301 -0.860716 1.54655 154 136 112
0.880923 -0.865573 1.5529 153 138 115
0.923218 -0.875911 1.57108 150 127 111
0.958791 -0.880747 1.57724 124 107 91
0.98707 -0.880093 1.57149 141 125 109
0.999626 -0.868486 1.54217 146 127 110
1.01947 -0.862369 1.52476 131 95 81
1.05543 -0.867195 1.53084 133 94 79
1.05803 -0.85016 1.49016 144 112 99
1.09398 -0.854987 1.49624 140 121 89
1.10451 -0.843831 1.46829 131 108 92
1.13166 -0.843203 1.46277 107 91 78
1.18573 -0.858523 1.49099 78 74 65
1.25164 -0.880036 1.53209 52 36 36
1.2603 -0.868115 1.50261 77 64 56
1.27862 -0.862033 1.4855 82 72 63
1.31648 -0.866816 1.4912 72 62 50
1.35471 -0.87159 1.49682 87 68 62
-0.841196 -0.883244 1.92219 137 114 108
-0.822249 -0.893743 1.94519 133 114 100
-0.79397 -0.893089 1.93945 133 110 92
-0.770079 -0.898396 1.94898 141 120 101
-0.745782 -0.903694 1.95843 141 118 104
-0.717096 -0.90303 1.9526 137 113 101
-0.688409 -0.902367 1.94678 140 124 101
-0.659722 -0.901703 1.94095 144 126 104
-0.631036 -0.90104 1.93512 141 117 105
-0.605518 -0.906309 1.94433 141 122 105
-0.576628 -0.905641 1.93846 137 116 95
-0.547738 -0.904973 1.93259 134 119 98
-0.518848 -0.904304 1.92672 138 123 104
-0.492313 -0.90955 1.93572 141 123 99
-0.463219 -0.908877 1.92981 141 123 113
-0.434126 -0.908204 1.9239 147 123 119
-0.406777 -0.913431 1.93273 141 120 103
-0.375939 -0.906859 1.91208 143 121 97
-0.348183 -0.912076 1.92083 144 119 99
-0.318886 -0.911399 1.91487 144 121 105
-0.289589 -0.910721 1.90892 143 121 97
-0.261844 -0.92258 1.93398 145 117 103
-0.231554 -0.915629 1.91248 138 115 97
-0.202724 -0.927462 1.93731 140 117 101
-0.172776 -0.92677 1.93123 143 120 102
-0.142828 -0.926077 1.92515 139 117 94
-0.112571 -0.931627 1.93434 137 112 92
-0.0829318 -0.924692 1.91298 129 106 98
-0.0661295 -0.813752 1.63817 25 20 14
-0.0392998 -0.817819 1.64423 14 13 19
0.00808951 -0.928837 1.90983 98 87 67
0.0382545 -0.928139 1.90371 131 112 95
0.0701315 -0.934042 1.91354 134 111 93
0.100527 -0.933339 1.90736 129 112 96
0.130923 -0.932636 1.90119 130 108 85
0.161318 -0.931933 1.89501 134 113 92
0.191714 -0.93123 1.88884 130 107 89
0.222109 -0.930527 1.88267 139 111 97
0.252505 -0.929824 1.87649 137 110 101
0.286227 -0.935685 1.88595 137 109 95
0.316853 -0.934977 1.87972 133 109 99
0.347479 -0.934268 1.8735 129 103 86
0.378105 -0.93356 1.86728 134 113 96
0.408731 -0.932851 1.86106 130 102 91
0.443837 -0.93868 1.87023 126 103 89
0.469984 -0.931435 1.84862 128 101 90
0.50555 -0.937253 1.8577 125 98 89
0.541577 -0.943061 1.86668 127 97 87
0.572665 -0.942342 1.86037 119 100 85
0.603752 -0.941622 1.85406 118 102 89
0.634839 -0.940903 1.84774 111 92 77
0.672378 -0.947067 1.85738 106 90 77
0.697014 -0.939465 1.83511 93 74 68
0.714993 -0.925768 1.79885 90 67 59
0.659813 -0.843057 1.60388 155 134 117
0.675968 -0.831745 1.57375 154 100 100
0.697758 -0.826163 1.55685 166 105 110
0.724912 -0.825535 1.55134 166 130 114
0.745718 -0.819585 1.53369 154 133 112
0.772682 -0.818961 1.52821 152 131 110
0.7934 -0.813404 1.51153 168 142 127
0.807837 -0.803304 1.48463 160 144 121
0.840377 -0.807239 1.48952 136 120 95
0.873764 -0.811545 1.49521 91 81 72
0.907503 -0.815843 1.50082 82 70 56
0.942143 -0.82051 1.50721 146 131 108
0.969297 -0.819882 1.5017 146 128 108
0.996451 -0.819254 1.49618 147 131 98
1.03126 -0.823527 1.50158 146 132 106
1.05076 -0.817998 1.48515 145 132 113
1.07791 -0.81737 1.47964 152 137 108
1.08807 -0.806588 1.45168 149 132 114
1.12322 -0.810853 1.45701 146 113 104
1.12522 -0.795963 1.42016 112 68 69
1.15971 -0.799852 1.42466 97 82 75
1.21368 -0.81423 1.45206 96 77 71
1.24084 -0.813602 1.44654 82 71 67
1.25804 -0.807735 1.42962 97 81 81
1.31471 -0.82244 1.45743 92 74 64
-0.849947 -0.866185 1.95701 141 119 108
-0.821668 -0.865531 1.95127 136 113 95
-0.797977 -0.87064 1.96088 135 112 106
-0.769494 -0.869981 1.9551 136 120 95
-0.745193 -0.875076 1.96459 139 121 99
-0.716506 -0.874412 1.95877 130 112 100
-0.691594 -0.879493 1.96814 139 117 106
-0.662704 -0.878825 1.96227 135 114 95
-0.637182 -0.883891 1.97151 137 117 90
-0.608089 -0.883218 1.9656 148 126 105
-0.578995 -0.882545 1.95969 135 117 97
-0.547144 -0.876152 1.9388 142 120 106
-0.520808 -0.881199 1.94788 139 116 98
-0.491715 -0.880526 1.94197 139 118 91
-0.464769 -0.88556 1.95092 133 113 102
-0.435472 -0.884882 1.94497 133 113 89
-0.408031 -0.890281 1.95479 140 117 101
-0.378517 -0.889599 1.94879 138 117 100
-0.347581 -0.882849 1.92712 129 108 89
-0.320695 -0.894295 1.95244 137 116 99
-0.290964 -0.893607 1.9464 133 113 88
-0.261233 -0.89292 1.94036 132 107 87
-0.231502 -0.892232 1.93432 133 112 95
-0.202108 -0.897586 1.94374 136 110 93
-0.17216 -0.896893 1.93766 130 107 91
-0.142115 -0.902232 1.94695 131 106 84
-0.11195 -0.901534 1.94082 132 105 88
-0.0817854 -0.900837 1.9347 128 106 83
-0.065032 -0.792218 1.65521 20 16 13
-0.0387597 -0.79161 1.64987 17 13 10
0.00870969 -0.898744 1.91631 91 77 64
0.0388747 -0.898046 1.91019 127 104 88
0.0724732 -0.910091 1.93607 128 108 84
0.103099 -0.909382 1.92985 130 115 82
0.135903 -0.915035 1.93954 137 112 92
0.164352 -0.907966 1.91741 134 112 98
0.197617 -0.913607 1.927 135 108 91
0.225604 -0.906549 1.90497 128 107 86
0.25933 -0.91218 1.91447 135 109 92
0.290187 -0.911466 1.9082 127 108 93
0.321044 -0.910752 1.90193 127 108 94
0.355693 -0.916362 1.91125 128 107 88
0.38678 -0.915643 1.90494 126 100 87
0.417867 -0.914924 1.89862 123 105 85
0.444471 -0.907898 1.87686 127 104 90
0.480042 -0.913486 1.88599 121 100 83
0.511129 -0.912767 1.87968 116 97 82
0.542217 -0.912048 1.87336 120 98 84
0.579028 -0.917984 1.8832 120 98 85
0.610359 -0.917259 1.87684 112 89 71
0.647903 -0.923179 1.88653 110 92 68
0.673022 -0.91581 1.86411 106 83 69
0.711054 -0.921719 1.8737 92 74 62
0.735685 -0.914361 1.85138 70 59 53
0.6492 -0.805113 1.58517 104 71 64
0.654644 -0.785 1.53308 153 104 110
0.665475 -0.770796 1.49529 146 116 106
0.685863 -0.765422 1.47864 157 141 118
0.706353 -0.760422 1.46293 158 131 110
0.73773 -0.764222 1.4681 153 132 105
0.775682 -0.772772 1.48444 163 141 120
0.796023 -0.767776 1.46877 165 145 118
0.809435 -0.758038 1.442 167 142 120
0.828948 -0.753061 1.42649 157 134 120
0.848136 -0.748092 1.41105 157 138 123
0.873581 -0.747504 1.40588 154 134 110
0.933316 -0.769126 1.45243 151 134 108
0.959588 -0.768518 1.44709 155 139 113
0.985861 -0.767911 1.44175 148 127 108
1.01997 -0.772024 1.44733 145 125 101
1.03841 -0.766695 1.43108 155 131 119
1.06468 -0.766088 1.42574 146 127 110
1.07486 -0.756424 1.39963 147 108 111
1.09291 -0.751481 1.38442 151 99 101
1.12673 -0.755225 1.38909 135 94 88
1.15266 -0.754625 1.38382 117 99 75
1.20511 -0.767742 1.40972 76 63 47
1.22231 -0.762442 1.39372 86 71 68
1.28555 -0.780212 1.42994 86 69 59
-0.854358 -0.843543 1.97857 130 112 100
-0.825875 -0.842884 1.97279 127 109 95
-0.797391 -0.842225 1.967 129 109 98
-0.773289 -0.847121 1.97658 135 119 93
-0.744603 -0.846458 1.97076 134 111 105
-0.71989 -0.85134 1.98021 130 112 92
-0.694771 -0.856213 1.98958 139 118 97
-0.665677 -0.85554 1.98367 135 118 100
-0.639948 -0.860399 1.99292 137 120 100
-0.60749 -0.854194 1.97185 139 118 99
-0.581354 -0.859043 1.98102 134 116 102
-0.552057 -0.858366 1.97507 138 115 101
-0.52276 -0.857688 1.96912 136 114 100
-0.495966 -0.862886 1.97911 134 115 100
-0.466452 -0.862203 1.97312 134 114 105
-0.439007 -0.867386 1.98298 130 113 93
-0.409276 -0.866698 1.97694 127 114 95
-0.37791 -0.860155 1.95513 71 58 50
-0.345649 -0.848138 1.91867 75 62 54
-0.318882 -0.85879 1.94314 74 62 46
-0.290352 -0.863947 1.95279 74 64 55
-0.260621 -0.86326 1.94675 75 61 61
-0.23089 -0.862572 1.94071 76 62 49
-0.201492 -0.86771 1.95018 65 56 41
-0.17166 -0.872837 1.95956 75 65 55
-0.141495 -0.872139 1.95343 78 66 54
-0.11133 -0.871442 1.9473 78 60 58
-0.0822355 -0.859134 1.91052 76 67 50
-0.0620943 -0.784496 1.70958 16 17 11
-0.0374321 -0.770109 1.6679 18 15 10
0.00932987 -0.868651 1.92279 51 45 29
0.0409858 -0.8741 1.93277 73 60 52
0.0713814 -0.873397 1.92659 80 67 59
0.103729 -0.878829 1.93643 74 57 49
0.132173 -0.871991 1.91425 82 65 55
0.164981 -0.877413 1.92399 78 65 48
0.195608 -0.876704 1.91777 89 73 58
0.231982 -0.888225 1.94319 98 79 65
0.26307 -0.887506 1.93687 134 107 98
0.294157 -0.886787 1.93056 125 104 87
0.325244 -0.886068 1.92424 128 104 92
0.360352 -0.8918 1.93448 128 106 85
0.391683 -0.891076 1.92812 126 99 88
0.423015 -0.890351 1.92175 122 104 92
0.454346 -0.889626 1.91539 123 100 92
0.485678 -0.888902 1.90902 123 102 81
0.511768 -0.881754 1.88636 120 99 82
0.54834 -0.887452 1.8963 116 96 87
0.579672 -0.886728 1.88993 111 89 75
0.611003 -0.886003 1.88357 112 90 76
0.648552 -0.891679 1.89331 102 87 66
0.680128 -0.890949 1.8869 111 92 85
0.711703 -0.890218 1.88048 93 80 64
0.709689 -0.858633 1.79694 50 41 32
0.695722 -0.818597 1.69267 42 29 23
0.660563 -0.763054 1.55025 113 88 83
0.666012 -0.744749 1.50089 150 136 109
0.675828 -0.731069 1.4632 159 143 117
0.690996 -0.722355 1.43792 161 144 118
0.716292 -0.72177 1.43279 157 135 122
0.735815 -0.716956 1.41724 145 128 110
0.766883 -0.7206 1.42251 125 112 96
0.803867 -0.728107 1.43719 147 130 110
0.823214 -0.723297 1.42168 159 142 116
0.836347 -0.71463 1.39682 165 150 121
0.855443 -0.710189 1.38233 162 144 124
0.868053 -0.701899 1.35854 163 142 121
0.899074 -0.705181 1.36285 151 132 115
0.971662 -0.732952 1.42627 152 134 98
0.990358 -0.728157 1.41089 150 127 111
1.01613 -0.727561 1.40566 145 127 105
1.03434 -0.722777 1.39038 152 129 111
1.05222 -0.718 1.37517 141 123 101
1.06254 -0.709399 1.35088 151 134 104
1.0803 -0.704988 1.33666 154 133 114
1.09775 -0.700585 1.3225 139 124 91
1.11491 -0.696189 1.3084 107 92 85
1.17944 -0.715057 1.34932 82 68 55
1.22229 -0.722792 1.36378 85 68 52
-0.853772 -0.815127 1.98469 134 115 101
-0.825289 -0.814469 1.97891 132 111 92
-0.801386 -0.819167 1.98857 132 108 96
-0.772699 -0.818503 1.98274 135 113 102
-0.748186 -0.823187 1.99228 136 117 100
-0.727236 -0.833205 2.01707 125 106 89
-0.697939 -0.832527 2.01112 131 111 100
-0.672443 -0.837538 2.02142 131 111 102
-0.642929 -0.836856 2.01543 132 110 96
-0.613415 -0.836173 2.00943 133 112 93
-0.583901 -0.83549 2.00344 135 114 109
-0.551455 -0.829139 1.98136 131 108 102
-0.524873 -0.834125 1.99145 126 113 96
-0.495359 -0.833443 1.98545 122 107 88
-0.470409 -0.844067 2.01136 124 112 98
-0.438396 -0.837726 1.98937 126 101 96
-0.362323 -0.778906 1.81615 67 53 50
-0.334803 -0.778269 1.81056 69 59 50
-0.308329 -0.782558 1.81873 76 60 60
-0.280619 -0.781917 1.8131 66 55 51
-0.252242 -0.77636 1.79379 66 55 49
-0.225199 -0.780635 1.80185 64 52 54
-0.198064 -0.789809 1.82344 58 48 39
-0.169974 -0.78916 1.81773 58 51 45
-0.141792 -0.793409 1.82556 58 48 38
-0.113795 -0.78786 1.80632 58 43 40
-0.086177 -0.78232 1.78716 59 48 42
-0.0345759 -0.756972 1.70989 55 46 41
-0.000393611 -0.790138 1.79684 42 33 36
0.0278861 -0.789484 1.79109 52 43 38
0.0576889 -0.794046 1.79956 55 46 39
0.086172 -0.793387 1.79377 58 45 37
0.114655 -0.792728 1.78799 59 50 45
0.143138 -0.792069 1.7822 62 48 35
0.171622 -0.79141 1.77642 53 46 38
0.23567 -0.863443 1.96667 86 74 58
0.267001 -0.862718 1.9603 121 101 74
0.294796 -0.855774 1.93723 116 97 90
0.325884 -0.855055 1.93092 124 104 80
0.365021 -0.866752 1.95782 124 102 89
0.392327 -0.859819 1.93485 127 105 91
0.428172 -0.865291 1.94499 117 96 79
0.459748 -0.864561 1.93857 123 103 92
0.491323 -0.863831 1.93216 113 95 81
0.522899 -0.8631 1.92575 117 98 84
0.548985 -0.856196 1.90303 114 93 90
0.580316 -0.855471 1.89666 112 96 81
0.617626 -0.860909 1.90651 114 92 79
0.649201 -0.860179 1.90009 105 86 79
0.680777 -0.859449 1.89368 102 81 76
0.712353 -0.858718 1.88727 82 70 58
0.697563 -0.817053 1.77412 41 31 22
0.696316 -0.789776 1.69888 32 27 21
0.645401 -0.723391 1.52241 115 104 82
0.650747 -0.706115 1.4739 159 144 123
0.671067 -0.701444 1.45816 172 149 133
0.68107 -0.68931 1.42322 166 145 126
0.700908 -0.685001 1.40854 157 132 125
0.720448 -0.680698 1.39393 158 143 114
0.73969 -0.676402 1.37937 131 115 100
0.758633 -0.672113 1.36488 103 90 81
0.794505 -0.678985 1.37888 144 127 109
0.825081 -0.682129 1.38332 152 142 107
0.849916 -0.681554 1.37827 158 139 122
0.862371 -0.673565 1.35445 164 147 117
0.87423 -0.665589 1.33075 157 145 107
0.891979 -0.661328 1.3165 146 127 112
0.922705 -0.664468 1.3209 133 105 83
1.00185 -0.693793 1.39097 124 92 79
1.00586 -0.681798 1.35725 85 57 45
1.02376 -0.677533 1.34296 144 118 95
1.04859 -0.676959 1.33792 111 73 62
1.06604 -0.672705 1.32373 104 39 33
1.06813 -0.661104 1.29136 140 101 84
1.0777 -0.653531 1.26909 142 120 97
1.09454 -0.649641 1.25599 128 113 92
1.13287 -0.655756 1.26757 110 87 81
-0.863153 -0.797039 2.02196 132 111 92
-0.834263 -0.796371 2.01609 131 110 93
-0.805373 -0.795703 2.01023 136 112 108
-0.780855 -0.800184 2.01981 131 111 102
-0.751762 -0.799511 2.0139 126 109 101
-0.726634 -0.803978 2.02336 135 115 104
-0.70135 -0.808778 2.03376 127 107 100
-0.671836 -0.808095 2.02776 135 113 102
-0.642322 -0.807412 2.02177 132 110 99
-0.616171 -0.812192 2.03199 133 114 100
-0.583295 -0.806047 2.00978 133 105 94
-0.556709 -0.810817 2.01991 129 107 94
-0.526978 -0.810129 2.01387 128 111 95
-0.497247 -0.809441 2.00783 126 106 97
-0.469793 -0.814191 2.01779 129 115 78
-0.437785 -0.808066 1.99576 123 105 93
-0.383057 -0.733771 1.77396 67 51 52
-0.354948 -0.728746 1.75563 62 55 37
-0.329481 -0.732532 1.76308 67 53 50
-0.302694 -0.731912 1.75764 64 44 45
-0.275906 -0.731293 1.7522 65 54 52
-0.249734 -0.735062 1.7595 68 58 48
-0.22233 -0.730053 1.74131 67 53 52
-0.195543 -0.729434 1.73587 53 42 38
-0.168935 -0.737905 1.75668 55 50 46
-0.141781 -0.737277 1.75117 66 57 48
-0.114628 -0.736649 1.74565 69 54 51
-0.0874736 -0.736021 1.74014 63 49 46
-0.0609856 -0.730697 1.72116 42 34 31
-0.0340216 -0.730073 1.71569 19 16 11
-0.0070575 -0.729449 1.71021 43 39 27
0.0222895 -0.737857 1.73046 58 49 44
0.0524707 -0.746582 1.75152 61 50 48
0.0785654 -0.741267 1.73262 59 45 42
0.106086 -0.74063 1.72703 56 47 38
0.135601 -0.744659 1.73463 57 44 36
0.161126 -0.739357 1.71585 65 52 46
0.239368 -0.838173 1.99025 73 58 39
0.270943 -0.837443 1.98384 112 93 79
0.298977 -0.830737 1.96067 119 96 78
0.330309 -0.830012 1.95431 114 96 86
0.36567 -0.835252 1.9646 123 103 79
0.397246 -0.834522 1.95818 122 99 91
0.428821 -0.833791 1.95177 123 102 83
0.460397 -0.833061 1.94536 119 97 86
0.491973 -0.832331 1.93894 108 91 75
0.523548 -0.8316 1.93253 109 93 80
0.555124 -0.83087 1.92612 114 94 87
0.592438 -0.836065 1.93601 109 86 78
0.618275 -0.829409 1.91329 104 85 81
0.656078 -0.834593 1.92309 100 88 74
0.687898 -0.833857 1.91662 99 83 70
0.719717 -0.833121 1.91016 84 70 61
0.691993 -0.781935 1.76628 46 37 30
0.69691 -0.760955 1.70508 35 25 24
0.640976 -0.693258 1.51742 85 74 70
0.641445 -0.673055 1.45907 147 132 111
0.65175 -0.661374 1.42396 163 148 129
0.666586 -0.653627 1.39959 161 146 123
0.680825 -0.645894 1.37534 156 140 114
0.705063 -0.645333 1.37042 151 133 111
0.729301 -0.644773 1.36549 163 144 127
0.747943 -0.64064 1.35103 136 123 106
0.772032 -0.640083 1.34614 139 118 99
0.790762 -0.636284 1.33262 137 121 106
0.814715 -0.63573 1.32776 155 142 98
0.844297 -0.638411 1.33146 166 146 121
0.856855 -0.63139 1.30949 162 147 114
0.874181 -0.627287 1.29529 165 148 120
0.891813 -0.623514 1.282 155 131 105
0.909173 -0.619747 1.26876 147 117 106
0.93257 -0.619206 1.26401 108 74 65
0.975942 -0.628635 1.2853 99 52 42
1.02739 -0.64158 1.31563 109 36 47
1.04439 -0.637485 1.30149 116 56 48
1.05424 -0.63019 1.2791 124 81 64
1.06353 -0.622908 1.25683 147 129 109
1.07295 -0.615959 1.2355 153 128 106
1.10361 -0.618615 1.23898 141 119 95
-0.867537 -0.773179 2.04379 135 111 101
-0.838444 -0.772506 2.03788 130 110 99
-0.809351 -0.771833 2.03197 125 108 90
-0.780257 -0.77116 2.02606 127 110 84
-0.755329 -0.775429 2.0356 127 109 95
-0.730258 -0.780017 2.04609 125 110 87
-0.704752 -0.784595 2.05649 133 113 106
-0.675021 -0.783908 2.05045 134 104 93
-0.64529 -0.78322 2.04442 133 109 97
-0.615559 -0.782532 2.03838 124 110 97
-0.585828 -0.781845 2.03234 133 117 92
-0.556097 -0.781157 2.0263 128 110 88
-0.526366 -0.780469 2.02026 125 107 87
-0.496635 -0.779782 2.01422 128 110 100
-0.47145 -0.789536 2.04027 127 107 98
-0.395161 -0.671808 1.67516 69 58 54
-0.37676 -0.690764 1.72986 72 57 54
-0.350651 -0.69016 1.72455 71 60 58
-0.3234 -0.68533 1.70636 63 48 45
-0.298432 -0.688952 1.71395 73 54 60
-0.272322 -0.688348 1.70864 70 56 55
-0.246212 -0.687744 1.70334 64 54 52
-0.219265 -0.679045 1.67352 39 36 29
-0.193254 -0.674568 1.65655 27 18 19
-0.167647 -0.673975 1.65135 15 15 5
-0.141688 -0.689203 1.69379 63 53 44
-0.115416 -0.688595 1.68846 61 50 44
-0.0891437 -0.687987 1.68312 66 52 49
-0.0622494 -0.691564 1.69032 51 42 43
-0.0350638 -0.694812 1.69648 52 45 39
0.0170966 -0.689729 1.6742 53 42 38
0.0422179 -0.684949 1.65644 92 82 80
0.0713818 -0.69235 1.67486 57 42 45
0.0979932 -0.691734 1.66946 58 50 29
0.124605 -0.691119 1.66405 64 46 44
0.151216 -0.690503 1.65865 54 47 41
0.175788 -0.686059 1.64197 63 55 42
0.271592 -0.805943 1.99062 89 72 64
0.303168 -0.805212 1.98421 103 87 72
0.338535 -0.810209 1.99455 110 91 76
0.366319 -0.803752 1.97138 121 96 91
0.402174 -0.808737 1.98163 118 96 85
0.433994 -0.808001 1.97516 115 97 77
0.465814 -0.807265 1.9687 108 88 81
0.497633 -0.806529 1.96224 112 92 81
0.535001 -0.811802 1.97315 107 91 75
0.561273 -0.805057 1.94931 105 87 77
0.593093 -0.804321 1.94285 110 90 83
0.618924 -0.797909 1.92007 105 91 80
0.669889 -0.814819 1.96426 100 82 70
0.702224 -0.814071 1.95769 100 83 75
0.727466 -0.80735 1.93406 81 68 51
0.692604 -0.752275 1.77266 43 36 28
0.685489 -0.722722 1.68451 42 29 36
0.690371 -0.704197 1.62801 45 38 32
0.641965 -0.64782 1.4645 115 97 83
0.647407 -0.633158 1.41957 136 124 100
0.662088 -0.625712 1.39517 143 128 109
0.676172 -0.61828 1.37088 137 120 104
0.685323 -0.608055 1.33883 144 128 105
0.694128 -0.598161 1.30783 148 134 107
0.717389 -0.597623 1.3031 160 143 123
