ply
format ascii 1.0
element vertex 1297
property float x
property float y
property float z
property uchar red
property uchar green
property uchar blue
end_header
-0.137158 -0.705738 1.53302 42 35 27
-0.113125 -0.700842 1.51666 38 31 23
-0.0889231 -0.699885 1.51092 43 35 33
-0.0641081 -0.702851 1.5157 43 34 27
-0.0405192 -0.697973 1.49945 38 27 25
-0.0154081 -0.700927 1.50416 44 28 28
0.00894193 -0.699965 1.49838 46 35 31
0.0320866 -0.695103 1.48223 37 26 30
0.057642 -0.69804 1.48683 43 33 31
0.0834934 -0.700965 1.49137 40 28 28
0.106342 -0.696116 1.47529 39 29 27
0.134287 -0.702905 1.48999 38 28 29
0.156988 -0.698061 1.47394 38 31 25
0.181486 -0.697093 1.46813 39 29 30
0.205984 -0.696125 1.46232 35 24 22
0.228092 -0.691305 1.44642 32 28 19
0.252442 -0.690343 1.44064 43 30 24
0.276792 -0.68938 1.43487 52 38 38
0.439494 -0.875616 1.91689 87 69 57
0.471073 -0.874369 1.9094 87 69 59
0.502651 -0.873121 1.90192 98 78 71
0.534229 -0.871873 1.89443 91 73 61
0.565808 -0.870625 1.88694 107 92 71
0.597386 -0.869377 1.87945 107 87 86
0.622873 -0.861912 1.85596 103 87 72
0.660543 -0.866882 1.86448 102 89 83
0.685545 -0.859435 1.8411 105 85 78
0.730896 -0.870918 1.86621 98 78 77
0.76273 -0.86966 1.85867 99 83 67
0.794564 -0.868402 1.85112 95 82 65
0.826398 -0.867144 1.84357 97 79 67
0.842225 -0.853244 1.80395 77 67 58
0.798619 -0.794692 1.65142 42 28 28
0.80012 -0.773106 1.59289 37 29 26
0.788182 -0.743081 1.51332 46 39 31
0.795846 -0.728427 1.47273 49 41 39
0.797434 -0.710425 1.42388 40 35 29
0.763792 -0.670136 1.3194 64 51 43
0.743887 -0.640785 1.24268 138 123 102
0.746034 -0.626708 1.20436 154 138 122
0.753223 -0.616378 1.17551 170 149 130
0.760226 -0.606414 1.14768 170 155 126
0.767082 -0.596815 1.12085 165 150 117
0.773832 -0.587579 1.09501 149 132 116
0.78477 -0.581047 1.07593 151 134 108
0.790903 -0.572194 1.05121 154 139 108
0.811619 -0.571375 1.0463 161 140 123
0.82715 -0.567891 1.03486 172 131 125
0.847758 -0.567077 1.02998 161 120 118
0.863642 -0.563938 1.01942 141 100 98
0.911002 -0.576059 1.046 141 95 82
0.926426 -0.572579 1.03459 167 114 122
0.947358 -0.571752 1.02963 171 111 119
0.968289 -0.570925 1.02466 159 91 90
0.983282 -0.567462 1.01335 167 128 113
0.99806 -0.564008 1.00209 167 151 126
-0.809306 -0.840317 2.07126 118 100 86
-0.7798 -0.839151 2.06427 123 104 89
-0.750295 -0.837985 2.05727 116 101 82
-0.724847 -0.842505 2.06681 122 105 97
-0.695126 -0.841331 2.05976 120 107 98
-0.669032 -0.845825 2.06914 124 102 91
-0.64272 -0.850657 2.07944 118 102 87
-0.612555 -0.849465 2.07229 121 98 82
-0.58239 -0.848273 2.06513 123 100 92
-0.552226 -0.847081 2.05798 124 106 94
-0.52477 -0.851867 2.06801 125 103 89
-0.494376 -0.850666 2.0608 125 107 93
-0.461731 -0.843505 2.03652 119 101 91
-0.431566 -0.842313 2.02937 116 95 94
-0.403195 -0.847063 2.03918 123 104 89
-0.374366 -0.851795 2.04889 118 99 93
-0.30798 -0.692028 1.59047 69 60 55
-0.282049 -0.683405 1.56292 47 36 34
-0.257847 -0.682449 1.55718 36 25 33
-0.233645 -0.681493 1.55144 35 26 17
-0.209716 -0.684346 1.55647 31 27 24
-0.185365 -0.683384 1.5507 34 25 20
-0.160992 -0.68622 1.55562 41 31 32
-0.136494 -0.685252 1.54981 38 28 29
-0.111676 -0.68807 1.55463 36 28 26
-0.0870294 -0.687096 1.54878 34 29 23
-0.0623833 -0.686122 1.54294 34 29 25
-0.0392654 -0.677611 1.51605 37 29 26
-0.013091 -0.684175 1.53125 32 24 22
0.0115552 -0.683201 1.52541 30 22 20
0.034993 -0.678475 1.50915 32 24 22
0.0594911 -0.677507 1.50334 33 25 22
0.086998 -0.684019 1.51822 32 26 26
0.111792 -0.683039 1.51234 29 26 19
0.136586 -0.682059 1.50646 33 25 22
0.161381 -0.681079 1.50058 30 23 17
0.186175 -0.680099 1.4947 32 22 21
0.210969 -0.67912 1.48883 32 23 18
0.235763 -0.67814 1.48295 33 24 25
0.255476 -0.669763 1.45687 35 27 25
0.277285 -0.665102 1.44099 47 38 33
0.445034 -0.8505 1.94216 84 65 61
0.476868 -0.849242 1.93461 85 66 62
0.514114 -0.854332 1.94426 88 71 61
0.540536 -0.846726 1.91951 94 75 71
0.57237 -0.845468 1.91196 89 70 56
0.604204 -0.84421 1.90441 107 88 74
0.636038 -0.842952 1.89687 104 82 71
0.667872 -0.841694 1.88932 104 85 78
0.69276 -0.834148 1.86493 100 83 76
0.73154 -0.839178 1.87422 92 76 61
0.770832 -0.844187 1.88339 98 79 83
0.802922 -0.842919 1.87578 99 83 68
0.835012 -0.841651 1.86817 91 70 69
0.867101 -0.840383 1.86056 78 65 57
0.874195 -0.820762 1.8044 49 40 33
0.814487 -0.754738 1.62592 31 24 16
0.788731 -0.716038 1.52014 49 34 39
0.790056 -0.697681 1.46826 44 32 32
0.791456 -0.680357 1.41929 46 38 36
0.786886 -0.660161 1.36297 38 29 24
0.744357 -0.617634 1.24852 99 80 66
0.731357 -0.595008 1.18642 126 122 93
0.738716 -0.585392 1.1584 101 39 28
0.745915 -0.576128 1.1314 137 79 68
0.757642 -0.569793 1.11208 170 155 126
0.769507 -0.563798 1.0937 170 154 131
0.77547 -0.554929 1.06797 158 140 116
0.786351 -0.548973 1.04982 160 141 126
0.797437 -0.543354 1.0326 164 148 123
0.812657 -0.53999 1.0212 173 153 129
0.82303 -0.534399 1.00415 164 136 124
0.853254 -0.538385 1.01158 169 130 125
0.868732 -0.535356 1.0011 173 122 127
0.883319 -0.532017 0.989856 164 111 105
0.903416 -0.531223 0.985091 140 83 90
0.94028 -0.53771 0.998727 123 58 54
0.960686 -0.536903 0.993888 149 101 89
0.98714 -0.538621 0.995399 167 138 120
-0.813408 -0.816395 2.09542 121 103 89
-0.783687 -0.815221 2.08837 118 102 87
-0.753966 -0.814046 2.08133 121 104 88
-0.728298 -0.818343 2.09086 123 101 80
-0.698362 -0.81716 2.08376 113 97 84
-0.676124 -0.827568 2.11169 121 99 88
-0.64573 -0.826367 2.10448 121 105 89
-0.615336 -0.825166 2.09727 118 101 91
-0.584942 -0.823965 2.09007 116 103 95
-0.554549 -0.822764 2.08286 119 100 85
-0.524155 -0.821563 2.07565 127 105 91
-0.493761 -0.820362 2.06845 129 101 100
-0.463367 -0.819161 2.06124 116 102 89
-0.432973 -0.81796 2.05403 117 98 84
-0.404369 -0.822473 2.06385 121 102 96
-0.373746 -0.821263 2.05659 119 99 90
-0.307484 -0.667602 1.59663 86 72 63
-0.282273 -0.662954 1.57991 49 33 44
-0.258488 -0.665666 1.58502 35 25 24
-0.23399 -0.664698 1.57921 31 22 17
-0.209492 -0.66373 1.5734 39 27 27
-0.184994 -0.662762 1.56759 38 22 23
-0.160496 -0.661794 1.56178 40 28 30
-0.135823 -0.66447 1.56667 37 31 19
-0.111177 -0.663497 1.56083 37 26 22
-0.0860597 -0.666156 1.56561 39 27 27
-0.0612655 -0.665176 1.55973 35 28 22
-0.0364713 -0.664196 1.55385 33 25 23
-0.0116771 -0.663216 1.54797 36 26 27
0.0120539 -0.658627 1.53161 34 25 20
0.0367 -0.657653 1.52576 35 26 29
0.0627055 -0.660277 1.53034 33 26 20
0.0890072 -0.662889 1.53484 39 28 22
0.113949 -0.661904 1.52892 37 23 22
0.138892 -0.660918 1.52301 36 27 22
0.163834 -0.659932 1.5171 34 26 24
0.188776 -0.658947 1.51118 35 28 20
0.211471 -0.654399 1.49506 38 28 26
0.238661 -0.656976 1.49935 30 23 17
0.263603 -0.65599 1.49344 40 26 26
0.285853 -0.651459 1.47742 44 34 25
0.450583 -0.824873 1.96755 71 57 48
0.482673 -0.823605 1.95994 87 68 54
0.514763 -0.822336 1.95233 89 70 63
0.546853 -0.821068 1.94472 89 72 65
0.578943 -0.8198 1.93711 92 71 66
0.611032 -0.818532 1.9295 97 79 67
0.643122 -0.817264 1.9219 102 84 72
0.675212 -0.815996 1.91429 103 86 76
0.707302 -0.814728 1.90668 98 77 74
0.746599 -0.819483 1.91591 95 82 73
0.778944 -0.818204 1.90824 92 76 63
0.81129 -0.816926 1.90057 89 71 71
0.843635 -0.815648 1.8929 92 74 62
0.875981 -0.81437 1.88523 77 62 57
0.874829 -0.789518 1.81228 41 36 30
0.821969 -0.730858 1.64614 23 20 15
0.78928 -0.688995 1.52696 39 28 32
0.790591 -0.671349 1.47491 47 38 39
0.785971 -0.65095 1.41547 34 34 34
0.781738 -0.631864 1.35984 35 34 29
0.777525 -0.613773 1.30714 61 47 44
0.731809 -0.572756 1.19203 71 20 25
0.724748 -0.555441 1.14196 99 26 19
0.727615 -0.544373 1.10906 155 138 120
0.734244 -0.535812 1.08308 175 153 130
0.75031 -0.532522 1.07146 171 150 131
0.76616 -0.52924 1.05989 165 149 134
0.777444 -0.523814 1.04257 170 150 141
0.79277 -0.520553 1.03112 167 149 127
0.80334 -0.515156 1.01397 166 150 127
0.814168 -0.510081 0.997734 185 157 135
0.828673 -0.506852 0.986484 171 145 122
0.848473 -0.506069 0.981789 153 133 109
0.863357 -0.503157 0.971426 162 144 120
0.883063 -0.502379 0.966753 158 133 126
0.897664 -0.499478 0.956456 155 133 110
0.912077 -0.496585 0.946204 141 87 75
0.947475 -0.502157 0.958314 120 59 64
-0.817501 -0.792044 2.11969 114 95 81
-0.787565 -0.790861 2.11259 124 98 83
-0.762159 -0.795273 2.12322 121 100 79
-0.731994 -0.794081 2.11607 118 101 75
-0.701829 -0.792889 2.10892 111 97 97
-0.675509 -0.797264 2.11933 117 98 81
-0.645115 -0.796063 2.11212 115 100 81
-0.614721 -0.794862 2.10492 123 100 86
-0.584327 -0.793661 2.09771 125 106 91
-0.556862 -0.797991 2.10786 117 98 83
-0.52624 -0.796781 2.10059 122 101 84
-0.495617 -0.795571 2.09333 121 100 83
-0.464994 -0.794361 2.08607 119 100 83
-0.434372 -0.793151 2.07881 114 93 74
-0.407423 -0.803235 2.10671 114 95 78
-0.374682 -0.796207 2.08131 118 99 84
-0.282491 -0.642208 1.59699 40 33 23
-0.258555 -0.644766 1.60209 31 22 15
-0.233909 -0.643793 1.59624 42 33 26
-0.209263 -0.642819 1.5904 33 27 13
-0.184617 -0.641845 1.58456 36 29 23
-0.15997 -0.640871 1.57871 29 24 20
-0.135146 -0.643394 1.5836 39 28 26
-0.110026 -0.645905 1.58843 32 23 18
-0.085558 -0.641434 1.57185 31 21 19
-0.0607638 -0.640455 1.56597 34 27 21
-0.0351995 -0.642949 1.57068 35 24 18
-0.0111754 -0.638495 1.55421 37 27 18
0.0146851 -0.640977 1.55885 33 21 21
0.038413 -0.636536 1.54245 36 29 13
0.0645696 -0.639006 1.54703 36 26 25
0.0911596 -0.641778 1.55248 36 25 23
0.117922 -0.644224 1.55691 33 29 26
0.141367 -0.639794 1.54057 29 20 13
0.168426 -0.642229 1.54494 38 29 20
0.191575 -0.63781 1.52867 35 25 23
0.214223 -0.633092 1.51154 39 29 20
0.239166 -0.632107 1.50563 34 23 19
0.264108 -0.631121 1.49971 33 23 24
0.419143 -0.794145 1.98323 43 34 29
0.456143 -0.798736 1.99307 71 52 46
0.488489 -0.797457 1.9854 80 62 48
0.520835 -0.796179 1.97773 86 66 55
0.55318 -0.794901 1.97006 83 67 54
0.579592 -0.787805 1.94518 87 70 54
0.617871 -0.792345 1.95472 92 74 64
0.643772 -0.785269 1.92997 87 74 58
0.682562 -0.789788 1.93938 92 75 68
0.707951 -0.782733 1.91475 97 77 70
0.754466 -0.793 1.94095 96 81 62
0.779599 -0.785954 1.91638 94 74 75
0.819668 -0.790423 1.92549 93 77 64
0.84429 -0.783398 1.90104 92 75 59
0.876636 -0.78212 1.89337 82 69 60
0.883508 -0.763691 1.83589 31 24 16
0.84419 -0.716187 1.69432 26 23 16
0.816363 -0.678742 1.58236 26 18 15
0.785278 -0.641426 1.47118 41 32 25
0.792497 -0.629036 1.43223 49 40 35
0.782239 -0.607143 1.36608 43 34 27
0.783816 -0.593064 1.32259 48 32 33
0.72252 -0.545155 1.18232 71 33 32
0.720748 -0.531528 1.14061 104 55 38
0.728043 -0.523276 1.11438 145 133 109
0.725361 -0.510321 1.07484 162 147 126
0.72812 -0.500655 1.0448 173 156 138
0.739198 -0.495439 1.02747 176 160 137
0.754847 -0.492591 1.0169 171 156 125
0.774755 -0.491805 1.01218 166 151 120
0.794663 -0.491018 1.00746 168 143 121
0.800001 -0.483799 0.98464 176 161 140
0.814883 -0.480981 0.974253 180 164 141
0.819928 -0.474092 0.952481 166 140 117
0.839163 -0.473332 0.94792 159 141 105
0.858398 -0.472572 0.943359 148 133 110
0.872526 -0.469784 0.93315 152 136 113
0.896868 -0.471052 0.934237 165 147 123
0.916103 -0.470291 0.929676 161 141 104
-0.821879 -0.76758 2.14511 104 89 82
-0.791714 -0.766388 2.13796 103 86 79
-0.761549 -0.765196 2.13081 104 87 77
-0.735681 -0.769362 2.14139 107 86 81
-0.701219 -0.762812 2.1165 106 92 83
-0.682572 -0.777638 2.16223 112 98 87
-0.651721 -0.776419 2.15491 101 84 74
-0.62445 -0.780834 2.16614 115 94 89
-0.590018 -0.77398 2.14028 107 90 82
-0.559167 -0.772761 2.13297 119 99 92
-0.531169 -0.777147 2.14403 116 92 90
-0.497464 -0.770323 2.11834 117 97 86
-0.466612 -0.769104 2.11102 121 101 92
-0.437888 -0.773461 2.12191 121 101 92
-0.408679 -0.7778 2.13268 108 93 88
-0.377343 -0.776561 2.12525 117 97 88
-0.346007 -0.775323 2.11782 112 88 76
-0.28341 -0.624551 1.62511 32 19 26
-0.258056 -0.620193 1.60829 34 23 19
-0.233822 -0.622592 1.61336 36 30 32
-0.209291 -0.624979 1.61835 35 28 20
-0.184348 -0.623993 1.61244 29 21 18
-0.159406 -0.623008 1.60653 30 25 22
-0.134464 -0.622022 1.60061 34 27 21
-0.108834 -0.628028 1.61715 40 29 27
-0.0835821 -0.62703 1.61116 41 27 24
-0.0583302 -0.626032 1.60517 30 25 19
-0.0330783 -0.625034 1.59919 31 23 21
-0.00782644 -0.624036 1.5932 35 23 23
0.0174254 -0.623038 1.58721 31 22 17
0.0426773 -0.62204 1.58122 36 25 29
0.0665638 -0.61774 1.56474 25 16 17
0.094832 -0.623641 1.58066 31 24 18
0.118433 -0.619047 1.56326 39 29 30
0.145659 -0.621633 1.56861 34 23 21
0.171072 -0.620628 1.56258 35 24 18
0.194189 -0.616053 1.5453 26 23 18
0.221899 -0.61862 1.55053 35 23 27
0.244692 -0.614058 1.53332 27 18 23
0.269944 -0.61306 1.52734 34 23 21
0.429112 -0.773377 2.02645 42 31 29
0.461714 -0.772089 2.01872 76 53 47
0.494315 -0.7708 2.01099 74 54 43
0.521489 -0.763929 1.98587 81 60 57
0.553835 -0.762651 1.9782 84 65 58
0.58618 -0.761373 1.97053 89 69 60
0.618526 -0.760094 1.96286 86 68 66
0.650871 -0.758816 1.95519 93 75 65
0.683217 -0.757538 1.94752 96 83 74
0.715562 -0.75626 1.93985 98 76 78
0.755125 -0.760494 1.94915 94 74 67
0.787727 -0.759206 1.94142 90 72 58
0.828464 -0.763699 1.95143 98 81 74
0.852929 -0.756629 1.92596 86 71 64
0.885531 -0.755341 1.91823 78 65 59
0.868048 -0.721856 1.81225 27 21 23
0.852157 -0.69136 1.71573 25 22 29
0.830675 -0.659254 1.61463 25 22 17
0.779471 -0.611539 1.4665 36 31 28
0.793018 -0.603375 1.4387 40 30 31
0.777082 -0.579288 1.36284 48 37 43
0.778499 -0.565806 1.31924 39 34 28
0.7744 -0.550101 1.26908 49 35 32
0.721183 -0.510095 1.14601 119 87 76
0.71881 -0.497372 1.10528 147 130 112
0.717052 -0.485541 1.06735 154 138 123
0.723767 -0.478258 1.04314 167 145 132
0.726211 -0.469312 1.01405 172 154 130
0.737207 -0.464606 0.997673 179 160 143
0.752276 -0.461874 0.987217 109 96 87
0.762612 -0.457194 0.971001 116 70 70
0.773234 -0.452807 0.9557 142 77 81
0.787562 -0.450105 0.94542 122 51 59
0.801701 -0.44741 0.935184 124 50 51
0.811435 -0.443059 0.920094 115 57 56
0.821535 -0.438998 0.9059 141 115 98
0.84007 -0.438266 0.901505 174 153 136
0.858605 -0.437533 0.89711 166 145 116
0.891519 -0.44203 0.907988 142 123 106
-0.826247 -0.74266 2.17065 100 87 78
-0.795854 -0.741459 2.16345 99 85 72
-0.760939 -0.73512 2.13839 100 86 85
-0.735066 -0.739057 2.14903 101 89 77
-0.708736 -0.742976 2.15956 106 93 85
-0.681948 -0.746877 2.16999 103 92 88
-0.654915 -0.75106 2.18134 103 86 76
-0.623821 -0.749831 2.17396 100 86 73
-0.592727 -0.748603 2.16659 103 92 74
-0.561634 -0.747374 2.15922 105 92 84
-0.53054 -0.746145 2.15185 103 87 71
-0.499446 -0.744917 2.14447 116 97 82
-0.468352 -0.743688 2.1371 118 99 82
-0.439381 -0.747794 2.14799 120 99 82
-0.409925 -0.751881 2.15877 122 106 81
-0.376709 -0.745318 2.13313 117 100 82
-0.345373 -0.744079 2.1257 115 96 82
-0.284381 -0.606598 1.65439 34 26 23
-0.259278 -0.605606 1.64844 36 30 30
-0.234174 -0.604614 1.64249 29 24 21
-0.20907 -0.603622 1.63654 35 28 18
-0.183966 -0.60263 1.63058 32 27 21
-0.158862 -0.601638 1.62463 31 23 21
-0.133575 -0.603848 1.62949 29 22 16
-0.108323 -0.60285 1.6235 26 21 18
-0.0825475 -0.605332 1.62923 27 22 19
-0.0578192 -0.600854 1.61153 28 19 20
-0.0325674 -0.599856 1.60554 30 21 24
-0.00731547 -0.598859 1.59955 30 20 21
0.0179364 -0.597861 1.59356 28 24 15
0.0431883 -0.596863 1.58758 27 21 23
0.0684401 -0.595865 1.58159 33 26 20
0.0970006 -0.601738 1.5985 31 24 18
0.122575 -0.600727 1.59243 32 23 16
0.14815 -0.599717 1.58637 32 20 22
0.173725 -0.598706 1.5803 35 24 22
0.1993 -0.597696 1.57424 34 20 17
0.222413 -0.593281 1.55692 34 24 22
0.247827 -0.592277 1.55089 30 22 19
0.27324 -0.591273 1.54487 32 22 21
0.429772 -0.740872 2.03465 52 37 32
0.467553 -0.745213 2.04543 69 52 42
0.500424 -0.743914 2.03763 75 56 52
0.527576 -0.737007 2.01146 79 66 49
0.566165 -0.741316 2.02205 82 68 57
0.599036 -0.740018 2.01425 82 65 55
0.62538 -0.733142 1.98827 83 66 59
0.657981 -0.731854 1.98054 78 64 51
0.690583 -0.730565 1.97281 95 78 70
0.723184 -0.729277 1.96508 93 76 68
0.755785 -0.727989 1.95735 91 77 64
0.796259 -0.732224 1.96749 92 74 62
0.829129 -0.730925 1.95969 92 72 63
0.862 -0.729626 1.9519 86 69 59
0.89487 -0.728327 1.94411 77 62 55
0.901789 -0.711134 1.88524 34 28 28
0.845384 -0.65735 1.70916 29 21 19
0.831247 -0.63107 1.62174 32 23 24
0.774144 -0.582273 1.4626 29 23 23
0.793539 -0.577714 1.44518 38 35 30
0.777581 -0.554715 1.36904 34 28 30
0.778985 -0.541823 1.32529 46 36 34
0.769456 -0.524113 1.26637 43 33 31
0.766029 -0.510245 1.21982 59 50 43
0.710136 -0.472195 1.09691 134 120 107
0.712808 -0.463045 1.06569 157 142 121
0.715837 -0.454466 1.03636 152 140 118
0.718085 -0.445917 1.00721 172 151 130
0.724531 -0.439536 0.98496 172 160 138
0.739315 -0.436909 0.974548 90 25 31
0.75456 -0.434556 0.965013 146 59 75
0.76898 -0.431944 0.954687 179 116 125
0.779154 -0.42775 0.939447 186 133 141
0.788978 -0.423569 0.924291 182 142 140
0.798453 -0.419402 0.909217 184 138 140
0.812594 -0.417093 0.899944 162 118 115
0.826573 -0.41479 0.890709 182 151 131
0.840391 -0.412494 0.881512 174 151 133
0.854047 -0.410204 0.872353 165 149 123
-0.830607 -0.717284 2.19631 46 38 35
-0.799984 -0.716074 2.18905 73 56 62
-0.773878 -0.719774 2.19969 91 78 61
-0.738739 -0.713654 2.17453 95 77 73
-0.712175 -0.717336 2.18506 107 93 82
-0.685379 -0.721286 2.19653 105 90 83
-0.654286 -0.720058 2.18916 104 84 77
-0.623192 -0.718829 2.18178 111 90 85
-0.595427 -0.722742 2.19302 110 93 83
-0.564091 -0.721503 2.18559 105 87 85
-0.532755 -0.720265 2.17816 108 90 80
-0.501419 -0.719027 2.17073 110 92 82
-0.470083 -0.717789 2.1633 114 93 92
-0.438747 -0.71655 2.15587 121 98 92
-0.409286 -0.720396 2.16671 124 105 91
-0.377707 -0.719148 2.15922 114 95 81
-0.346129 -0.7179 2.15173 118 95 87
-0.284575 -0.584657 1.67176 46 36 26
-0.259323 -0.58366 1.66578 43 28 23
-0.234071 -0.582662 1.65979 33 24 17
-0.208819 -0.581664 1.6538 46 37 32
-0.183568 -0.580666 1.64781 43 28 31
-0.158316 -0.579668 1.64183 43 31 35
-0.13286 -0.582002 1.64767 40 32 30
-0.107447 -0.580998 1.64165 41 29 33
-0.0815064 -0.583313 1.64738 35 28 22
-0.0566198 -0.578989 1.6296 35 24 18
-0.0312065 -0.577985 1.62357 36 26 24
-0.0047816 -0.580281 1.62919 35 25 26
0.0207933 -0.57927 1.62312 32 20 22
0.0450337 -0.574972 1.60549 37 25 27
0.0704471 -0.573968 1.59947 36 25 21
0.0991756 -0.579513 1.61642 36 24 24
0.124912 -0.578496 1.61031 38 26 28
0.148668 -0.574217 1.5928 44 32 34
0.176385 -0.576462 1.59811 41 33 30
0.199818 -0.572196 1.58067 35 26 21
0.225393 -0.571185 1.57461 34 22 22
0.250968 -0.570175 1.56854 29 19 20
0.276543 -0.569164 1.56248 34 30 27
0.435348 -0.713738 2.06149 53 39 30
0.473404 -0.717801 2.07227 72 56 57
0.506544 -0.716491 2.06441 86 68 66
0.539684 -0.715182 2.05655 86 67 60
0.572823 -0.713872 2.0487 92 78 65
0.599701 -0.707244 2.02252 91 73 61
0.639103 -0.711253 2.03298 94 75 60
0.665442 -0.704646 2.00693 96 81 76
0.698312 -0.703347 1.99914 105 87 75
0.738522 -0.707325 2.00941 107 93 84
0.771661 -0.706015 2.00155 109 95 84
0.804801 -0.704705 1.99369 111 94 86
0.837941 -0.703396 1.98583 106 88 84
0.871081 -0.702086 1.97797 105 88 80
0.895535 -0.695554 1.95237 94 80 67
0.928406 -0.694255 1.94458 59 52 46
0.838602 -0.62377 1.70249 25 21 18
0.8247 -0.598992 1.61568 27 23 24
0.839098 -0.59063 1.58454 33 24 25
0.79406 -0.552054 1.45165 35 26 27
0.778079 -0.530141 1.37524 46 36 34
0.768374 -0.512434 1.31318 41 30 34
0.769925 -0.500962 1.27221 40 31 32
0.771484 -0.490045 1.23323 45 36 31
0.702022 -0.447702 1.08929 106 94 80
0.704484 -0.438977 1.05801 153 137 111
0.707303 -0.430794 1.02863 163 145 125
0.714215 -0.424677 1.0062 173 147 124
0.716825 -0.417059 0.978846 102 23 26
0.726979 -0.412761 0.962576 107 35 46
0.741953 -0.410499 0.953084 83 26 32
0.748145 -0.404967 0.932803 149 88 83
0.76668 -0.404234 0.928408 175 123 125
0.780385 -0.401744 0.918227 181 124 133
0.790384 -0.39801 0.903974 182 116 126
0.804362 -0.395787 0.894719 164 87 103
0.818178 -0.393571 0.885502 170 133 124
0.831833 -0.391362 0.876324 174 151 135
0.84987 -0.390649 0.872047 171 150 129
-0.768742 -0.684331 2.18949 27 25 28
-0.742402 -0.687794 2.20014 49 45 33
-0.711551 -0.686575 2.19282 90 80 71
-0.688801 -0.695213 2.2232 129 116 110
-0.657465 -0.693974 2.21577 147 132 129
-0.626129 -0.692736 2.20833 149 134 129
-0.594793 -0.691498 2.2009 145 130 123
-0.566538 -0.69515 2.21209 149 132 125
-0.532121 -0.689021 2.18604 145 133 119
-0.500785 -0.687783 2.17861 152 134 124
-0.471803 -0.691406 2.18963 157 141 128
-0.438113 -0.685307 2.16375 161 141 130
-0.408647 -0.688911 2.17465 163 143 132
-0.380505 -0.697865 2.20574 167 150 130
-0.348415 -0.696597 2.19813 162 148 137
-0.284064 -0.55948 1.67812 79 69 59
-0.259413 -0.561685 1.68419 38 27 25
-0.23356 -0.557484 1.66614 28 23 17
-0.208586 -0.559676 1.67214 36 24 24
-0.183289 -0.561855 1.67807 36 29 23
-0.157714 -0.560845 1.672 36 29 13
-0.131932 -0.563005 1.67781 39 26 20
-0.105796 -0.565416 1.68453 38 28 18
-0.0798844 -0.564392 1.67839 39 32 26
-0.053973 -0.563368 1.67224 40 29 27
-0.0289858 -0.558937 1.6534 32 25 17
-0.00324938 -0.55792 1.6473 21 16 10
0.0237613 -0.560296 1.65381 43 29 29
0.0482235 -0.555886 1.6351 36 26 17
0.0755842 -0.558249 1.64152 30 22 20
0.101496 -0.557225 1.63538 33 24 19
0.127407 -0.556201 1.62924 37 27 26
0.155302 -0.558277 1.63455 35 25 24
0.17923 -0.554153 1.61695 34 24 22
0.205141 -0.553129 1.6108 35 26 21
0.231053 -0.552105 1.60466 34 29 25
0.254115 -0.54775 1.58628 30 20 18
0.279851 -0.546733 1.58017 31 21 19
0.436013 -0.680965 2.06976 70 52 48
0.474075 -0.684759 2.0806 94 77 61
0.507214 -0.683449 2.07275 101 81 74
0.540354 -0.68214 2.06489 110 87 73
0.573494 -0.68083 2.05703 108 92 77
0.606634 -0.679521 2.04917 112 93 89
0.633236 -0.673171 2.02299 111 92 86
0.672913 -0.676901 2.03346 116 97 90
0.706053 -0.675592 2.0256 119 99 90
0.739192 -0.674282 2.01774 121 98 90
0.779946 -0.67797 2.02795 122 99 93
0.813355 -0.67665 2.02003 122 102 93
0.846764 -0.67533 2.01211 111 94 84
0.880173 -0.67401 2.00418 116 98 94
0.904891 -0.667735 1.97845 111 94 87
0.938031 -0.666425 1.97059 88 78 69
0.97117 -0.665116 1.96273 40 31 34
0.832391 -0.574702 1.63596 28 23 17
0.825984 -0.556147 1.56693 29 25 24
0.788558 -0.523452 1.44763 27 22 16
0.778578 -0.505568 1.38144 36 34 21
0.763567 -0.486293 1.31047 40 39 34
0.764973 -0.475376 1.2694 41 36 30
0.771943 -0.467418 1.23894 43 35 32
0.763335 -0.453188 1.18633 48 41 33
0.700812 -0.417247 1.05708 129 107 94
0.699357 -0.407767 1.02166 152 130 107
0.701808 -0.400253 0.993253 119 33 32
0.708489 -0.394691 0.971797 60 41 27
0.719087 -0.390828 0.956367 124 96 85
0.725436 -0.385544 0.935983 116 35 34
0.735916 -0.381951 0.921575 121 35 36
0.746073 -0.378371 0.907243 124 49 44
0.755908 -0.374803 0.892988 145 97 83
0.773864 -0.374094 0.88873 166 119 125
0.787517 -0.371965 0.879531 174 139 137
0.805393 -0.371258 0.875292 169 154 125
0.823268 -0.370552 0.871054 175 154 123
0.841144 -0.369845 0.866815 177 156 135
-0.715215 -0.660511 2.21954 25 17 15
-0.684121 -0.659282 2.21217 31 23 20
-0.660634 -0.667408 2.24249 36 29 23
-0.625495 -0.661492 2.21622 67 52 55
-0.597477 -0.664912 2.22752 93 76 68
-0.565899 -0.663664 2.22003 127 115 99
-0.531487 -0.657778 2.19393 123 110 101
-0.500151 -0.656539 2.1865 133 112 109
-0.471164 -0.659921 2.19757 135 117 107
-0.439586 -0.658673 2.19008 138 118 107
-0.409976 -0.662282 2.202 138 120 110
-0.379855 -0.66587 2.21381 146 122 112
-0.347765 -0.664602 2.2062 142 118 116
-0.259496 -0.539388 1.70269 39 29 30
-0.233921 -0.538377 1.69663 37 28 21
-0.20862 -0.540395 1.70259 33 26 18
-0.182884 -0.539378 1.69649 35 21 21
-0.157147 -0.538361 1.69039 36 27 32
-0.131183 -0.540605 1.69719 32 23 18
-0.105272 -0.539581 1.69105 31 21 22
-0.0788267 -0.541554 1.69674 35 25 26
-0.0534487 -0.537533 1.67876 33 21 21
-0.0266808 -0.539493 1.68438 30 19 17
-0.000607793 -0.538463 1.6782 29 21 18
0.0254652 -0.537433 1.67201 33 21 23
0.0501971 -0.533437 1.65419 34 20 17
0.0761085 -0.532413 1.64804 29 20 21
0.103684 -0.534342 1.65347 31 22 15
0.129757 -0.533311 1.64729 24 16 14
0.15583 -0.532281 1.6411 30 21 12
0.181903 -0.531251 1.63492 33 24 27
0.207976 -0.530221 1.62874 32 25 17
0.234049 -0.52919 1.62256 29 19 20
0.260122 -0.52816 1.61637 26 21 15
0.286195 -0.52713 1.61019 30 18 20
0.441606 -0.653026 2.0968 62 47 40
0.479942 -0.656541 2.10765 80 66 57
0.507885 -0.650407 2.08108 90 76 63
0.541025 -0.649097 2.07322 99 81 59
0.574164 -0.647788 2.06536 99 81 71
0.607304 -0.646478 2.05751 104 85 78
0.640444 -0.645169 2.04965 104 86 72
0.680395 -0.64862 2.06012 103 83 74
0.713804 -0.6473 2.0522 112 91 88
0.739863 -0.64124 2.02607 111 92 86
0.780622 -0.64466 2.03635 111 92 86
0.814031 -0.643339 2.02843 109 93 80
0.84744 -0.642019 2.02051 109 94 87
0.880849 -0.640699 2.01259 107 90 83
0.914258 -0.639379 2.00466 94 76 62
0.938701 -0.633383 1.97893 91 74 67
0.953372 -0.622743 1.93557 41 32 27
0.832963 -0.546518 1.64306 21 16 10
0.833377 -0.532166 1.58613 32 24 21
0.826734 -0.515327 1.51991 31 22 23
0.779077 -0.480994 1.38763 35 24 30
0.764046 -0.462725 1.31642 44 34 32
0.760558 -0.450288 1.26739 52 42 40
0.767399 -0.442724 1.23686 49 38 36
0.759224 -0.429467 1.18495 40 33 27
0.765916 -0.422663 1.15744 72 57 60
0.695577 -0.386712 1.02057 136 122 96
0.698536 -0.379804 0.992952 151 132 125
0.705131 -0.374513 0.971447 164 144 133
0.711825 -0.36947 0.950916 166 144 123
0.718007 -0.364448 0.930506 156 134 110
0.728322 -0.361022 0.916095 175 150 128
0.734252 -0.356261 0.896742 171 153 131
0.747985 -0.354209 0.887504 169 151 127
0.753811 -0.349703 0.869172 166 148 124
0.767072 -0.34767 0.860046 173 156 136
0.776517 -0.344531 0.846838 166 148 128
0.789388 -0.342513 0.837804 163 142 111
0.811191 -0.34316 0.838617 169 148 129
-0.621304 -0.625822 2.20524 18 15 10
-0.586897 -0.620177 2.17908 20 12 10
-0.568502 -0.636831 2.24775 113 91 78
-0.536668 -0.635573 2.2402 120 97 83
-0.504834 -0.634315 2.23266 124 105 88
-0.473 -0.633057 2.22511 123 104 89
-0.441166 -0.631799 2.21756 125 102 96
-0.413259 -0.639744 2.24896 124 99 92
-0.379206 -0.633874 2.22188 128 103 96
-0.348568 -0.637187 2.23362 130 101 95
-0.31383 -0.626767 2.18737 95 74 73
-0.259572 -0.516768 1.72127 36 27 28
-0.233836 -0.515751 1.71517 38 23 26
-0.208393 -0.517841 1.72214 30 25 21
-0.182482 -0.516817 1.716 40 30 29
-0.15657 -0.515793 1.70985 31 23 10
-0.130445 -0.517618 1.71567 29 23 23
-0.103966 -0.519667 1.72239 28 23 17
-0.0782991 -0.515558 1.7033 33 29 20
-0.0522261 -0.514527 1.69712 32 24 21
-0.0261532 -0.513497 1.69094 37 26 24
-8.02092e-005 -0.512467 1.68475 37 23 20
0.0259927 -0.511436 1.67857 35 28 22
0.0520657 -0.510406 1.67239 32 20 20
0.07977 -0.512407 1.67883 31 23 21
0.106018 -0.511369 1.6726 32 25 19
0.132266 -0.510332 1.66638 33 23 21
0.160504 -0.512073 1.67169 31 22 17
0.184762 -0.508258 1.65393 28 23 17
0.21101 -0.507221 1.64771 32 23 18
0.237258 -0.506183 1.64148 33 23 22
0.263506 -0.505146 1.63526 27 19 17
0.286722 -0.501133 1.61675 34 24 25
0.312795 -0.500103 1.61057 47 33 32
0.470214 -0.614118 2.0785 60 45 38
0.503085 -0.612819 2.0707 68 44 40
0.535955 -0.61152 2.06291 62 43 39
0.568826 -0.610221 2.05511 71 53 41
0.601696 -0.608922 2.04732 75 57 45
0.634567 -0.607624 2.03953 71 53 43
0.667437 -0.606325 2.03173 74 58 43
0.693221 -0.600544 2.00561 74 57 47
0.725823 -0.599256 1.99788 72 56 41
0.766049 -0.602428 2.00835 83 59 55
0.791025 -0.596679 1.98242 83 59 57
0.83179 -0.59983 1.99276 87 71 48
0.856228 -0.594103 1.96696 81 63 51
0.888829 -0.592814 1.95923 69 52 45
0.92143 -0.591526 1.9515 71 51 52
0.945254 -0.586061 1.92684 50 36 33
0.826403 -0.515045 1.63686 19 16 11
0.833934 -0.504748 1.59305 24 20 19
0.827272 -0.488821 1.5266 26 21 25
0.828064 -0.476885 1.47638 29 26 19
0.764524 -0.439158 1.32236 37 29 27
0.761023 -0.427392 1.27317 51 44 38
0.76285 -0.418273 1.23472 40 31 32
0.764224 -0.409409 1.19737 36 33 24
0.761103 -0.399295 1.15509 39 34 31
0.683442 -0.36284 1.00742 91 83 64
0.694652 -0.359302 0.991755 147 135 113
0.701147 -0.354284 0.970205 163 145 125
0.707741 -0.349499 0.949631 165 149 126
0.714474 -0.344948 0.930026 164 147 129
0.716739 -0.339144 0.905477 179 163 140
0.719035 -0.333577 0.88192 179 162 136
0.732456 -0.331618 0.872735 169 151 131
0.746419 -0.329876 0.864422 172 157 134
0.755224 -0.326671 0.850328 180 153 132
0.768825 -0.324943 0.8421 177 161 136
0.78229 -0.323221 0.833905 169 148 119
0.794863 -0.321295 0.824921 157 136 115
-0.589581 -0.593592 2.20569 59 45 45
-0.558488 -0.592363 2.19832 114 86 82
-0.530218 -0.59529 2.20969 113 90 82
-0.498882 -0.594052 2.20226 106 83 75
-0.465207 -0.588677 2.1762 103 82 77
-0.43621 -0.591575 2.1874 110 89 72
-0.40673 -0.594454 2.19848 109 90 75
-0.375151 -0.593207 2.19099 117 94 88
-0.343573 -0.591959 2.1835 108 82 69
-0.310866 -0.586622 2.15768 99 76 68
-0.259691 -0.494054 1.74095 37 31 31
-0.23378 -0.49303 1.7348 27 20 14
-0.208136 -0.494713 1.74077 37 29 26
-0.182063 -0.493683 1.73459 33 22 18
-0.15593 -0.495571 1.74144 38 26 30
-0.129682 -0.494534 1.73522 38 31 23
-0.103056 -0.496177 1.74095 35 25 24
-0.0766466 -0.495134 1.73469 31 20 24
-0.0509386 -0.491422 1.71655 32 25 17
-0.0246907 -0.490385 1.71032 29 20 21
0.00258177 -0.492003 1.7159 32 22 23
0.0278052 -0.48831 1.69788 29 20 21
0.0525933 -0.48441 1.67895 30 20 18
0.0803011 -0.486236 1.68543 32 26 14
0.11003 -0.490678 1.70348 33 25 23
0.136614 -0.489628 1.69717 32 25 19
0.161039 -0.485742 1.67833 35 25 23
0.189783 -0.487527 1.68457 30 21 22
0.216367 -0.486476 1.67826 30 22 20
0.242952 -0.485426 1.67196 33 23 21
0.266676 -0.481567 1.65328 28 21 11
0.290285 -0.477938 1.63564 29 25 16
0.418997 -0.566094 2.02176 45 30 23
0.455778 -0.56891 2.03211 55 33 35
0.487868 -0.567642 2.02451 62 42 43
0.519958 -0.566374 2.0169 63 47 34
0.552048 -0.565105 2.00929 64 46 36
0.584137 -0.563837 2.00168 69 45 41
0.616227 -0.562569 1.99407 69 49 40
0.648317 -0.561301 1.98646 69 51 39
0.680407 -0.560033 1.97885 75 56 50
0.712497 -0.558765 1.97124 81 57 53
0.751835 -0.56148 1.98099 77 58 51
0.776676 -0.556229 1.95602 89 64 57
0.816526 -0.558923 1.96565 84 61 55
0.840856 -0.553693 1.94081 76 51 47
0.864674 -0.548483 1.91608 72 53 49
0.896508 -0.547225 1.90854 68 49 42
0.928342 -0.545967 1.90099 62 43 37
0.951137 -0.540797 1.87651 31 22 17
0.83449 -0.477329 1.59997 20 13 20
0.82781 -0.462314 1.53328 33 22 26
0.828589 -0.45105 1.4829 33 24 27
0.80472 -0.430873 1.39419 30 21 24
0.745739 -0.398603 1.25356 38 30 28
0.757739 -0.39386 1.23164 45 34 38
0.760108 -0.385902 1.19594 46 42 41
0.761535 -0.377982 1.16047 39 34 30
0.748888 -0.365675 1.10624 39 29 27
0.687101 -0.337785 0.985355 117 100 84
0.697783 -0.334442 0.96977 166 148 124
0.700467 -0.328719 0.944035 156 137 123
0.707034 -0.324415 0.924407 165 148 128
0.705145 -0.317749 0.894736 159 148 130
0.711936 -0.313886 0.877062 179 160 143
0.721061 -0.310829 0.862851 170 152 132
0.731272 -0.308179 0.85039 173 155 131
0.740495 -0.305343 0.83716 168 153 122
0.749423 -0.302519 0.824 165 148 128
0.766248 -0.301854 0.82001 173 154 137
0.787624 -0.302357 0.820965 167 150 124
-0.7014 -0.468158 1.76871 16 15 20
-0.572502 -0.458417 1.71598 8 12 15
-0.588952 -0.562589 2.21351 48 36 38
-0.549013 -0.550025 2.15166 102 83 69
-0.51862 -0.548824 2.14445 111 91 84
-0.49066 -0.551311 2.15495 116 92 80
-0.460037 -0.550101 2.14769 108 86 75
-0.431391 -0.55256 2.15802 109 89 78
-0.40054 -0.551341 2.1507 121 91 81
-0.371296 -0.553988 2.1619 114 86 75
-0.340203 -0.55276 2.15453 121 94 83
-0.306924 -0.54405 2.11138 109 90 75
-0.260391 -0.473549 1.77294 30 22 19
-0.234143 -0.472512 1.76671 34 24 22
-0.20816 -0.47402 1.77264 31 25 25
-0.18175 -0.472977 1.76638 36 31 25
-0.155399 -0.4694 1.74804 37 29 26
-0.128693 -0.473626 1.7669 37 27 26
-0.102108 -0.472576 1.76059 31 19 23
-0.0755237 -0.471525 1.75429 35 25 26
-0.0489393 -0.470475 1.74799 26 23 18
-0.0223549 -0.469424 1.74168 26 21 17
0.00422961 -0.468374 1.73538 22 18 15
0.0308141 -0.467323 1.72907 25 21 18
0.0573985 -0.466273 1.72277 25 22 15
0.0823446 -0.462541 1.70376 23 18 15
0.112381 -0.466847 1.72283 26 21 18
0.13914 -0.465789 1.71649 31 26 23
0.1659 -0.464732 1.71014 33 21 21
0.192659 -0.463674 1.7038 31 20 16
0.219419 -0.462617 1.69745 32 22 21
0.246178 -0.46156 1.69111 29 24 20
0.272937 -0.460502 1.68476 26 20 20
0.296659 -0.456818 1.66604 30 25 22
0.410496 -0.526898 1.99466 53 35 35
0.446523 -0.529277 2.00425 52 35 27
0.473168 -0.524422 1.9798 66 48 44
0.504504 -0.523183 1.97237 68 47 46
0.53584 -0.521945 1.96494 67 46 43
0.567176 -0.520707 1.95751 69 52 45
0.598512 -0.519469 1.95008 75 56 50
0.629848 -0.51823 1.94265 72 52 45
0.661184 -0.516992 1.93522 71 51 50
0.68589 -0.512213 1.91123 87 63 59
0.730728 -0.518047 1.93686 80 62 60
0.755192 -0.513277 1.91293 78 54 54
0.786528 -0.512039 1.9055 81 62 55
0.817864 -0.510801 1.89807 77 60 44
0.8492 -0.509562 1.89064 70 53 45
0.880536 -0.508324 1.88321 75 58 51
0.911872 -0.507086 1.87578 68 55 49
0.943208 -0.505848 1.86835 48 34 31
0.82181 -0.43332 1.52842 23 22 17
0.8224 -0.422733 1.47791 27 23 20
0.811047 -0.408393 1.41008 27 22 19
0.741306 -0.374388 1.25133 32 27 23
0.748169 -0.368201 1.2215 38 36 24
0.750286 -0.360723 1.18574 44 35 30
0.757298 -0.355164 1.15889 48 40 38
0.749305 -0.345128 1.11142 42 36 38
0.751595 -0.338699 1.08066 64 54 42
0.686302 -0.312335 0.958123 124 114 102
0.693187 -0.30826 0.938357 90 77 69
0.699587 -0.304205 0.918706 88 73 66
0.70218 -0.299243 0.894921 94 84 74
0.700764 -0.293383 0.86705 110 97 88
0.706891 -0.289761 0.849478 105 92 84
0.716112 -0.287073 0.83621 139 122 112
0.725754 -0.284579 0.82385 168 151 121
0.735128 -0.282096 0.811553 171 151 124
0.744232 -0.279623 0.79932 173 151 138
0.764447 -0.279881 0.799564 171 156 127
-0.694497 -0.438831 1.75119 18 21 14
-0.660841 -0.430972 1.70985 30 22 19
-0.581328 -0.421696 1.65966 18 8 7
-0.556967 -0.4423 1.76407 19 15 16
-0.543669 -0.453647 1.82156 20 12 10
-0.575676 -0.517435 2.14858 37 31 33
-0.545511 -0.516243 2.14143 106 84 70
-0.515346 -0.515051 2.13428 108 85 71
-0.485181 -0.513859 2.12713 118 87 82
-0.455016 -0.512667 2.11997 117 89 78
-0.424851 -0.511475 2.11282 117 87 76
-0.396429 -0.513716 2.12327 105 90 71
-0.366036 -0.512515 2.11606 122 95 76
-0.335642 -0.511313 2.10885 109 89 82
-0.305248 -0.510112 2.10165 114 91 75
-0.260444 -0.449776 1.79181 39 29 27
-0.234035 -0.448732 1.78555 29 24 18
-0.207625 -0.447688 1.77928 32 23 16
-0.181324 -0.449221 1.78619 33 20 14
-0.154739 -0.448171 1.77989 33 25 22
-0.127913 -0.449683 1.78667 33 24 19
-0.101153 -0.448625 1.78032 32 24 22
-0.0743938 -0.447568 1.77398 33 24 17
-0.0476343 -0.446511 1.76763 29 23 23
-0.0208749 -0.445453 1.76129 31 22 17
0.00588453 -0.444396 1.75494 28 18 16
0.032644 -0.443338 1.7486 30 18 18
0.0594034 -0.442281 1.74225 35 24 22
0.0861629 -0.441223 1.73591 32 24 22
0.114879 -0.442859 1.74325 30 22 20
0.141827 -0.441794 1.73686 27 22 19
0.168775 -0.440729 1.73047 30 23 17
0.193201 -0.436994 1.71053 28 19 14
0.222671 -0.438599 1.71769 30 26 17
0.249618 -0.437534 1.7113 27 18 19
0.273479 -0.433821 1.69149 26 21 17
0.300238 -0.432764 1.68514 33 23 24
0.398015 -0.485686 1.95208 44 29 24
0.433073 -0.487664 1.96095 56 35 32
0.463925 -0.486445 1.95363 60 43 36
0.489883 -0.482056 1.93029 65 45 38
0.515384 -0.477685 1.90706 71 52 45
0.551128 -0.479636 1.91577 66 49 41
0.581751 -0.478426 1.90851 67 48 41
0.618182 -0.48035 1.91706 73 58 35
0.636959 -0.47288 1.87823 64 43 40
0.673619 -0.474795 1.88673 68 54 43
0.704241 -0.473585 1.87947 75 57 57
0.734864 -0.472375 1.8722 80 63 55
0.772439 -0.474254 1.88048 81 59 48
0.796109 -0.469955 1.85768 88 64 52
0.826732 -0.468745 1.85042 68 60 39
0.857354 -0.467535 1.84316 78 53 46
0.887977 -0.466325 1.8359 74 60 49
0.9186 -0.465115 1.82864 60 41 35
0.932571 -0.457835 1.79096 24 19 13
0.822921 -0.397072 1.48438 36 25 29
0.81738 -0.385618 1.42606 33 24 27
0.818405 -0.376871 1.38134 27 24 19
0.743602 -0.344608 1.21914 47 38 41
0.746159 -0.33778 1.18417 51 37 36
0.753057 -0.332561 1.15726 45 36 31
0.74554 -0.323361 1.11052 45 37 34
0.747117 -0.317165 1.07881 43 33 34
0.740367 -0.308923 1.03694 55 44 38
0.682073 -0.287088 0.927441 76 64 64
0.688226 -0.283284 0.907786 85 75 65
0.695223 -0.279841 0.889953 107 97 87
0.697721 -0.27539 0.867122 81 70 68
0.703777 -0.271985 0.849513 93 83 74
0.705876 -0.267747 0.827787 117 103 92
0.715314 -0.265395 0.815441 165 151 124
0.724483 -0.263054 0.803158 173 157 134
0.73711 -0.261566 0.79511 166 148 126
0.749602 -0.260083 0.787093 174 153 122
-0.628123 -0.399997 1.67681 22 21 19
-0.606989 -0.401007 1.68194 17 13 10
-0.590798 -0.406269 1.71056 20 12 10
-0.563807 -0.424017 1.80762 11 10 6
-0.54059 -0.425313 1.81429 19 13 17
-0.524004 -0.43388 1.86107 20 15 12
-0.536593 -0.476801 2.09735 94 74 65
-0.507087 -0.475635 2.09035 106 84 73
-0.477582 -0.474469 2.08335 107 85 74
-0.44601 -0.47027 2.05964 103 85 71
-0.41672 -0.469112 2.05269 117 88 82
-0.390702 -0.473987 2.07898 117 90 81
-0.360981 -0.472812 2.07194 119 91 88
-0.330055 -0.468639 2.04837 105 85 74
-0.30154 -0.470463 2.05784 109 80 72
-0.263831 -0.438539 1.88154 53 38 31
-0.233955 -0.424816 1.80548 37 26 40
-0.20737 -0.423765 1.79918 30 19 13
-0.18089 -0.425117 1.80609 33 21 21
-0.154131 -0.42406 1.79974 30 18 18
-0.127107 -0.425574 1.80753 35 23 25
-0.100159 -0.424509 1.80114 32 24 21
-0.0726154 -0.425819 1.8078 35 26 19
-0.0462631 -0.422379 1.78836 28 23 20
-0.0193152 -0.421314 1.78197 36 25 21
0.00642601 -0.417715 1.76167 31 21 19
0.0345806 -0.419185 1.7692 31 21 19
0.0615285 -0.41812 1.76281 32 21 15
0.0884764 -0.417055 1.75642 31 21 20
0.119205 -0.420821 1.77652 35 21 21
0.146517 -0.419742 1.77004 29 19 18
0.171491 -0.416173 1.74992 30 23 17
0.198613 -0.415101 1.74349 33 21 21
0.225736 -0.414029 1.73706 33 26 18
0.252859 -0.412957 1.73062 30 20 18
0.277112 -0.409601 1.71169 28 18 17
0.30406 -0.408536 1.7053 26 21 17
0.390212 -0.449215 1.92729 41 31 21
0.424817 -0.450983 1.93633 60 45 42
0.455211 -0.449782 1.92912 67 51 38
0.480707 -0.445639 1.90583 72 53 46
0.510872 -0.444447 1.89868 70 50 43
0.541037 -0.443255 1.89153 74 53 48
0.571202 -0.442063 1.88437 76 56 47
0.601367 -0.440871 1.87722 79 60 53
0.62549 -0.436782 1.85426 73 56 46
0.661697 -0.438487 1.86292 80 62 52
0.691862 -0.437295 1.85576 87 67 66
0.728755 -0.438973 1.86426 95 73 52
0.752192 -0.434911 1.84146 89 68 67
0.782357 -0.433719 1.83431 88 70 56
0.805107 -0.429685 1.81167 91 62 58
0.835043 -0.428502 1.80457 75 61 50
0.872851 -0.430143 1.81285 79 59 50
0.903016 -0.428951 1.8057 66 49 41
0.924851 -0.424953 1.78327 36 26 25
0.823441 -0.371412 1.49086 31 25 25
0.817885 -0.360749 1.43233 30 20 18
0.806933 -0.349008 1.36798 34 23 27
0.739588 -0.321419 1.2176 40 31 22
0.746594 -0.316347 1.18957 52 38 38
0.748227 -0.310011 1.1547 57 42 47
0.750139 -0.304033 1.12179 45 30 33
0.743245 -0.296005 1.07778 51 41 40
0.740762 -0.289463 1.04185 45 36 29
0.678606 -0.26831 0.926758 56 44 44
0.685325 -0.264909 0.907922 108 98 88
0.687596 -0.260577 0.884054 105 96 81
0.690605 -0.256584 0.862041 150 137 118
0.693048 -0.252614 0.840161 165 148 128
0.702685 -0.250389 0.827733 163 145 121
0.708459 -0.247394 0.811149 171 153 129
0.717491 -0.245193 0.798864 175 157 137
0.72327 -0.242382 0.783294 173 151 128
0.735505 -0.240976 0.775321 170 148 135
-0.639926 -0.369903 1.64394 16 15 20
-0.622111 -0.37262 1.66007 10 9 14
-0.609009 -0.379115 1.69869 20 19 15
-0.598115 -0.388091 1.75209 17 17 9
-0.58351 -0.395211 1.79442 19 19 11
-0.560774 -0.396365 1.80124 9 8 6
-0.54262 -0.401976 1.8346 17 13 10
-0.52347 -0.407548 1.86771 25 22 17
-0.5255 -0.436363 2.03918 77 60 50
-0.499167 -0.437888 2.0482 95 74 57
-0.470294 -0.436747 2.04135 103 85 75
-0.441421 -0.435606 2.03451 107 87 76
-0.410817 -0.431831 2.01199 108 80 76
-0.385205 -0.43595 2.03644 111 88 74
-0.354803 -0.432183 2.01397 107 79 78
-0.327056 -0.433652 2.02266 112 86 71
-0.297057 -0.429901 2.00028 109 88 69
-0.267463 -0.426166 1.97799 63 48 41
-0.233417 -0.39831 1.81217 31 25 29
-0.207405 -0.4019 1.83348 35 24 18
-0.180457 -0.400835 1.82709 33 24 25
-0.153435 -0.401991 1.83391 33 22 20
-0.126044 -0.403303 1.84167 33 25 22
-0.0991894 -0.399847 1.82105 32 25 17
-0.0714214 -0.401145 1.82872 36 26 24
-0.04411 -0.400065 1.82224 26 17 10
-0.0167987 -0.398986 1.81576 34 24 14
0.0105126 -0.397907 1.80929 31 24 18
0.036425 -0.394488 1.7889 32 24 21
0.0651352 -0.395748 1.79634 29 20 15
0.0924466 -0.394669 1.78986 31 26 20
0.121722 -0.395907 1.79717 35 26 21
0.149222 -0.39482 1.79065 34 26 23
0.174381 -0.391431 1.77043 36 27 22
0.204222 -0.392647 1.77761 31 21 20
0.229003 -0.389273 1.75748 31 23 20
0.259221 -0.390473 1.76456 25 20 14
0.283626 -0.387115 1.74453 31 21 20
0.307654 -0.383771 1.72458 36 27 28
0.378671 -0.411238 1.88789 52 34 30
0.41236 -0.412644 1.89618 65 45 36
0.437682 -0.408906 1.87389 62 42 41
0.467187 -0.40774 1.8669 69 51 41
0.496693 -0.406574 1.8599 68 44 44
0.526198 -0.405409 1.85291 80 57 51
0.555703 -0.404243 1.84591 65 51 42
0.585209 -0.403077 1.83891 69 50 35
0.609023 -0.399399 1.81698 81 65 49
0.64422 -0.400745 1.82492 86 68 46
0.679847 -0.402074 1.83276 89 66 58
0.70323 -0.398413 1.81093 89 70 55
0.739288 -0.399725 1.81866 92 70 59
0.762241 -0.396081 1.79694 90 71 57
0.791746 -0.394915 1.78994 90 68 57
0.821252 -0.393749 1.78294 81 65 49
0.850757 -0.392583 1.77595 76 52 48
0.880263 -0.391417 1.76895 49 38 34
0.901924 -0.387825 1.74753 39 28 32
0.939273 -0.389086 1.75496 40 28 28
0.811549 -0.342137 1.47585 24 16 14
0.81839 -0.33588 1.4386 27 28 23
0.813405 -0.32667 1.38381 39 36 31
0.802479 -0.316326 1.32228 26 22 21
0.74189 -0.293577 1.18704 44 34 33
0.743976 -0.287851 1.15296 46 35 33
0.746371 -0.282454 1.12084 47 40 34
0.74793 -0.27709 1.08892 51 42 35
0.745531 -0.271027 1.05285 51 42 35
0.742801 -0.265149 1.01787 47 37 35
0.681769 -0.246523 0.907161 114 99 80
0.684619 -0.242647 0.884094 152 140 116
0.687554 -0.238939 0.862025 158 141 113
0.693386 -0.235972 0.844359 166 146 121
0.699492 -0.233165 0.827644 154 137 111
0.705194 -0.230375 0.811026 169 158 128
0.707563 -0.227031 0.791127 176 158 136
0.71315 -0.224416 0.775554 172 150 126
0.725195 -0.223085 0.767609 178 159 126
-0.650803 -0.353797 1.69431 15 9 13
-0.621638 -0.349335 1.66595 18 19 14
-0.611273 -0.357122 1.71659 20 20 20
-0.600216 -0.365354 1.77014 17 16 21
-0.577873 -0.366205 1.77607 20 15 19
-0.56026 -0.371026 1.80764 12 10 13
-0.544447 -0.378125 1.85393 14 9 13
-0.52768 -0.385502 1.90203 19 15 16
-0.522385 -0.405312 2.03047 66 44 46
-0.493916 -0.404187 2.02372 85 61 59
-0.465447 -0.403062 2.01697 92 65 48
-0.435049 -0.399496 1.99444 108 78 78
-0.408509 -0.400812 2.00347 106 79 60
-0.381566 -0.402112 2.0124 115 89 88
-0.351571 -0.398562 1.98997 115 93 79
-0.323102 -0.397437 1.98322 119 92 83
-0.295553 -0.398713 1.992 109 86 72
-0.266164 -0.395187 1.96972 76 59 49
-0.234255 -0.378163 1.86003 39 28 26
-0.207132 -0.377091 1.8536 40 31 32
-0.180009 -0.37602 1.84717 35 27 25
-0.152886 -0.374948 1.84074 34 23 29
-0.125219 -0.378268 1.86277 34 29 26
-0.0977195 -0.377181 1.85625 32 25 19
-0.0708687 -0.373914 1.83558 31 24 16
-0.0427199 -0.375008 1.84321 29 21 19
-0.0152202 -0.373921 1.83669 34 22 26
0.0122796 -0.372835 1.83017 29 23 23
0.0397793 -0.371748 1.82365 34 23 21
0.0672791 -0.370661 1.81712 30 26 23
0.0947789 -0.369575 1.8106 31 22 17
0.124247 -0.370617 1.81791 31 24 18
0.151935 -0.369523 1.81135 32 27 23
0.177278 -0.366315 1.79104 35 32 27
0.207311 -0.367335 1.79822 31 22 23
0.235 -0.366241 1.79165 31 22 23
0.259777 -0.363055 1.77148 33 23 22
0.287277 -0.361968 1.76496 31 23 21
0.318064 -0.362958 1.77196 32 21 25
0.3676 -0.374872 1.85008 55 40 33
0.404586 -0.378297 1.87296 65 47 45
0.433876 -0.37714 1.86602 67 48 41
0.458548 -0.373643 1.84383 83 59 55
0.483091 -0.370308 1.82269 70 56 47
0.511963 -0.369167 1.81585 55 44 24
0.52603 -0.361518 1.76656 44 33 31
0.53957 -0.354205 1.71943 64 60 51
0.567258 -0.353111 1.71287 30 23 15
0.616372 -0.360313 1.76045 58 40 36
0.66207 -0.3656 1.79557 89 66 60
0.6852 -0.362322 1.77477 91 67 55
0.72022 -0.363303 1.78178 93 73 64
0.742945 -0.36004 1.76108 93 73 62
0.771818 -0.358899 1.75423 94 71 57
0.800691 -0.357758 1.74738 81 63 49
0.829564 -0.356617 1.74054 83 59 57
0.85128 -0.353395 1.72007 79 59 61
0.887309 -0.354335 1.72685 73 56 48
0.916182 -0.353194 1.72 49 33 33
0.937292 -0.349996 1.69968 27 17 18
0.807214 -0.308005 1.42518 21 17 8
0.813895 -0.302539 1.3899 35 30 24
0.791795 -0.290329 1.31038 33 28 25
0.733181 -0.270104 1.17824 38 31 23
0.739722 -0.265905 1.15116 58 48 46
0.737214 -0.259857 1.11193 45 41 38
0.748337 -0.257053 1.09397 46 36 35
0.741552 -0.250543 1.05167 45 44 40
0.739356 -0.24527 1.01747 49 37 39
0.732985 -0.239374 0.979152 48 37 33
0.688294 -0.226165 0.892734 110 89 86
0.687896 -0.222083 0.866277 147 126 105
0.697186 -0.219982 0.852841 153 136 116
0.692766 -0.215428 0.823253 154 139 120
0.69833 -0.212843 0.806616 160 145 122
0.700559 -0.20976 0.786684 167 152 129
0.706754 -0.207466 0.77194 172 151 132
0.718677 -0.206207 0.764007 168 147 128
-0.61353 -0.334834 1.73456 18 13 17
-0.594521 -0.337255 1.7526 18 13 9
-0.585159 -0.346692 1.82005 18 11 18
-0.572711 -0.355142 1.88063 16 12 9
-0.548811 -0.355928 1.88726 15 6 9
-0.522401 -0.354884 1.881 14 11 6
-0.514384 -0.370288 1.99078 59 45 32
-0.484334 -0.367081 1.96931 107 75 62
-0.456645 -0.365987 1.96275 114 84 74
-0.430754 -0.366983 1.97095 119 93 76
-0.402878 -0.365881 1.96434 113 85 71
-0.375001 -0.36478 1.95773 112 83 77
-0.348356 -0.365746 1.96576 123 96 77
-0.319248 -0.362577 1.94451 115 89 76
-0.291371 -0.361475 1.9379 116 88 77
-0.263494 -0.360373 1.93129 119 93 78
-0.236096 -0.36131 1.93914 74 61 52
-0.207452 -0.35614 1.90366 26 21 18
-0.179763 -0.355046 1.8971 24 19 16
-0.152075 -0.353952 1.89053 28 22 22
-0.124387 -0.352857 1.88396 21 17 14
-0.0962343 -0.353764 1.89163 21 18 11
-0.0683576 -0.352662 1.88502 30 19 23
-0.040481 -0.351561 1.87841 29 18 16
-0.0115746 -0.352438 1.88591 22 16 20
0.0164905 -0.351329 1.87925 26 21 18
0.0445556 -0.35022 1.8726 30 18 18
0.0710257 -0.347155 1.85197 29 24 21
0.100686 -0.348002 1.85929 27 21 21
0.128751 -0.346893 1.85263 23 15 13
0.156816 -0.345784 1.84598 30 21 24
0.187398 -0.346738 1.8541 24 19 13
0.215665 -0.345621 1.84739 23 18 15
0.243932 -0.344504 1.84069 31 22 27
0.269076 -0.341348 1.81936 26 20 22
0.297142 -0.340239 1.8127 26 18 15
0.332259 -0.343177 1.83512 45 27 23
0.360728 -0.342052 1.82837 67 49 37
0.389197 -0.340927 1.82162 72 51 46
0.417666 -0.339802 1.81487 85 69 53
0.446135 -0.338677 1.80812 87 74 58
0.465532 -0.333584 1.77278 90 69 50
0.493597 -0.332475 1.76612 77 57 30
0.512442 -0.327693 1.73296 44 35 28
0.525734 -0.32111 1.68678 45 37 35
0.562831 -0.323682 1.70667 34 26 15
0.600682 -0.326225 1.72639 36 23 17
0.63967 -0.328866 1.74686 71 55 40
0.673886 -0.329678 1.75411 87 69 55
0.708506 -0.330473 1.76127 97 74 68
0.730824 -0.327428 1.74061 101 78 72
0.752738 -0.324399 1.72005 96 72 62
0.781005 -0.323282 1.71334 84 66 54
0.816231 -0.324053 1.72036 90 62 58
0.837539 -0.321048 1.69994 81 61 50
0.865806 -0.319931 1.69324 82 62 53
0.894073 -0.318814 1.68653 66 51 46
0.92234 -0.317697 1.67983 54 41 35
0.814385 -0.278408 1.39598 29 30 16
0.803425 -0.269756 1.33403 34 29 26
0.730782 -0.243205 1.14222 45 34 32
0.737625 -0.239618 1.11703 55 43 43
0.740176 -0.235335 1.08671 55 40 37
0.741947 -0.231082 1.05658 48 41 35
0.743575 -0.22698 1.0275 57 44 35
0.73336 -0.220894 0.983814 46 35 29
0.72726 -0.215799 0.947348 52 41 37
0.688239 -0.205226 0.870529 120 107 91
0.690598 -0.202104 0.848452 152 133 119
0.693097 -0.199121 0.827366 152 136 113
0.69218 -0.195696 0.802992 155 139 123
0.697948 -0.193449 0.787279 161 147 120
0.700353 -0.190758 0.768265 172 156 133
0.709113 -0.189114 0.756966 177 163 136
-0.634353 -0.310106 1.73439 15 14 12
-0.615782 -0.31225 1.75261 19 14 11
-0.591432 -0.311288 1.74683 22 16 20
-0.58998 -0.324704 1.85238 14 14 14
-0.57218 -0.328971 1.88723 11 12 7
-0.548276 -0.329596 1.8939 13 15 14
-0.521867 -0.328553 1.88764 14 9 15
-0.506745 -0.336719 1.95294 104 86 72
-0.479433 -0.33564 1.94646 109 84 77
-0.452122 -0.334561 1.93999 115 90 85
-0.424811 -0.333482 1.93351 113 93 84
-0.397499 -0.332402 1.92703 110 86 74
-0.371604 -0.33321 1.93529 115 91 81
-0.344105 -0.332124 1.92877 119 90 86
-0.316605 -0.331037 1.92225 125 98 87
-0.289105 -0.32995 1.91572 127 100 89
-0.261605 -0.328864 1.9092 114 84 82
-0.234105 -0.327777 1.90268 118 88 80
-0.206606 -0.32669 1.89616 115 87 76
-0.179009 -0.323769 1.87523 104 81 67
-0.151606 -0.324517 1.88312 100 75 71
-0.123547 -0.327071 1.90526 107 79 75
